ply
format ascii 1.0
element vertex 1295
property float x
property float y
property float z
property uchar red
property uchar green
property uchar blue
end_header
-0.294076 -0.113824 -0.064912 255 0 0
-0.196614 -0.111908 -0.112418 0 127 127
0.456691 0.279069 -0.123742 76 0 153
-0.021011 -0.562724 0.174232 153 0 76
-0.270647 0.460954 -0.259556 255 0 0
-0.122267 -0.091124 -0.073048 0 255 0
0.131020 -0.208525 -0.145133 0 0 255
-0.407597 0.002195 0.493786 0 255 0
0.055546 0.734337 -0.298218 255 0 0
-0.060021 0.202687 -0.244965 255 0 0
0.436131 -0.140376 -0.090787 76 0 153
-0.215665 0.012170 -0.017562 0 255 0
-0.326758 0.448774 -0.256712 255 0 0
0.459314 0.323801 -0.093454 76 0 153
-0.128839 0.010105 0.355062 0 255 0
-0.116493 -0.165842 -0.257544 255 0 0
0.397867 0.513762 -0.238085 255 0 0
-0.378345 -0.173821 -0.258031 255 0 0
0.205988 -0.148694 0.366212 255 0 0
-0.034314 -0.092271 0.335963 0 255 0
0.231206 -0.111109 0.154745 255 0 0
-0.403431 -0.103033 -0.099417 127 0 127
0.156393 0.277647 -0.192895 255 0 0
0.205047 0.563008 -0.285810 255 0 0
-0.032273 -0.192391 -0.247325 255 0 0
-0.068644 -0.530425 0.031528 0 255 0
0.026286 -0.132771 0.477494 255 0 0
0.151459 -0.173678 0.238023 0 0 255
0.151459 -0.230436 0.048259 0 0 255
0.355188 -0.089782 0.410745 0 255 0
0.318038 -0.109784 -0.275561 255 0 0
-0.128288 0.061690 -0.245130 255 0 0
0.156280 -0.579281 -0.072070 255 0 0
-0.308223 0.013260 0.362199 0 255 0
0.304699 -0.111157 0.282971 255 0 0
-0.307553 -0.096662 -0.185003 0 255 0
0.299658 -0.722317 -0.312400 255 0 0
0.175961 -0.110569 0.210347 255 0 0
0.312495 0.560434 -0.285045 255 0 0
0.179142 -0.076750 -0.235281 0 255 0
0.293637 0.013634 0.121392 0 255 0
0.174438 0.010904 0.324915 0 255 0
-0.401059 -0.049848 -0.176099 0 255 0
-0.002449 -0.270716 -0.060005 0 0 255
0.305532 -0.177410 -0.253092 255 0 0
-0.018081 -0.777678 0.593367 204 51 127
0.285271 -0.752916 -0.330282 0 255 0
-0.006242 -0.503520 0.111529 153 0 76
0.236302 0.303414 -0.237547 255 0 0
0.181208 0.627248 -0.304918 255 0 0
-0.532376 0.316743 0.010546 127 127 0
0.267675 0.026705 -0.257802 255 0 0
-0.333353 0.711198 -0.333695 255 0 0
0.369505 0.519738 -0.273283 255 0 0
0.282754 -0.088338 0.321624 0 255 0
0.030756 -0.687714 0.546825 127 0 127
-0.003073 -0.097813 -0.243513 0 255 0
0.484832 0.229399 0.007208 204 51 127
0.207873 0.555400 -0.240119 255 0 0
0.443015 0.238337 -0.013120 204 51 127
-0.010255 0.561185 -0.289169 255 0 0
0.011036 0.023518 -0.258775 255 0 0
-0.427138 -0.085925 0.329021 0 255 0
-0.104428 -0.132795 0.241454 0 0 255
-0.137592 -0.138804 0.239572 0 0 255
-0.403511 -0.073112 -0.168215 0 255 0
0.010262 0.423917 -0.254206 255 0 0
-0.256959 -0.088129 0.126687 0 255 0
0.135516 -0.132795 0.002897 0 0 255
-0.515580 -0.821591 0.248716 153 76 0
-0.028382 -0.198790 -0.214626 0 0 255
-0.503613 0.273627 0.020315 127 127 0
0.304783 -0.087573 0.293370 0 255 0
0.390222 0.015491 0.111065 0 255 0
-0.308814 0.537400 -0.278193 255 0 0
0.032622 -0.138976 -0.065968 76 0 153
0.022888 0.009588 -0.077725 0 255 0
-0.060497 0.009297 0.338115 0 255 0
-0.435105 -0.096150 -0.057856 127 0 127
-0.226501 -0.112491 0.116564 255 0 0
0.044395 0.008946 0.260917 0 255 0
0.221834 -0.117760 -0.027684 255 0 0
0.295495 0.494927 -0.271209 255 0 0
-0.310314 -0.085911 0.410380 255 0 0
0.112967 -0.554185 0.010734 255 0 0
0.150376 0.553203 -0.239405 255 0 0
0.243439 0.676737 -0.321628 255 0 0
0.071716 -0.124986 -0.287285 255 0 0
-0.374705 0.285378 -0.188673 255 0 0
-0.284539 -0.778741 -0.255262 0 127 127
-0.024156 0.200721 -0.245171 255 0 0
-0.022442 -0.509298 0.108597 76 0 153
0.125377 -0.091350 0.300057 0 255 0
0.262433 0.312656 -0.191139 255 0 0
0.173411 -0.109391 -0.141508 76 0 153
-0.363808 0.096578 -0.231612 255 0 0
0.444089 0.277071 -0.105328 76 0 153
0.291950 -0.087693 0.087886 0 255 0
0.471265 0.275151 -0.066379 76 0 153
-0.150450 -0.020168 0.599673 0 255 0
0.197578 -0.090030 0.144559 0 255 0
0.082465 -0.198568 -0.094050 0 0 255
0.073369 -0.110221 -0.275513 255 0 0
0.111431 -0.253538 -0.148848 0 0 255
-0.418761 -0.087833 0.397126 0 255 0
-0.064890 -0.157695 -0.082972 0 127 127
-0.113484 -0.093010 0.421469 0 255 0
-0.090300 -0.524198 0.132195 127 127 0
-0.012664 -0.233032 0.373090 0 0 255
0.040506 -0.097727 -0.243213 0 255 0
-0.433524 0.118616 -0.041059 127 0 127
-0.046099 -0.208893 -0.112856 0 0 255
-0.137592 -0.149962 0.198689 0 0 255
-0.083180 -0.132795 0.310379 0 0 255
0.146729 0.006346 0.477694 0 255 0
0.178980 0.425947 -0.210609 255 0 0
-0.310870 0.014050 0.300783 0 255 0
0.307616 -0.766618 -0.352658 0 255 0
-0.449876 0.273813 -0.001591 127 127 0
0.178052 -0.647438 -0.079733 255 0 0
0.008659 -0.092584 0.382778 0 255 0
0.146552 -0.217918 -0.264212 0 0 255
-0.176577 -0.090320 0.178997 0 255 0
0.401286 -0.108278 -0.113738 76 0 153
-0.022944 -0.545972 0.111057 76 0 153
0.379785 -0.118656 -0.312349 255 0 0
-0.108663 -0.178167 -0.071457 0 0 255
-0.433339 0.012987 -0.069879 127 0 127
0.363765 -0.087180 -0.003605 0 255 0
0.484831 0.176690 -0.063569 153 76 0
0.357588 -0.027545 -0.272408 255 0 0
0.048104 -0.060238 -0.276195 255 0 0
-0.115828 -0.202700 -0.282268 255 0 0
0.151459 -0.152235 -0.011295 0 0 255
-0.241206 0.677705 -0.278161 255 0 0
0.115866 0.009689 0.374337 0 255 0
0.172436 0.776575 -0.334016 255 0 0
0.352617 0.455644 -0.258316 255 0 0
0.074359 -0.001231 0.549124 0 255 0
0.394157 0.223156 -0.207226 255 0 0
-0.013058 -0.207711 -0.150941 0 0 255
0.281363 0.139488 -0.216148 255 0 0
-0.019213 0.423061 -0.205679 255 0 0
-0.427343 -0.040106 0.333286 0 255 0
-0.095500 -0.247593 0.353647 0 0 255
-0.082401 -0.095855 -0.189974 0 255 0
0.310699 0.012113 -0.061451 0 255 0
-0.215355 0.011966 0.167098 0 255 0
-0.032859 0.245371 -0.237578 255 0 0
0.381821 0.516485 -0.232306 255 0 0
-0.209589 0.284577 -0.192923 255 0 0
0.375423 0.012176 -0.074552 0 255 0
0.318401 0.006406 -0.169557 0 255 0
0.170857 -0.099892 0.529258 0 255 0
0.093754 0.009472 0.371726 0 255 0
-0.053013 -0.092124 0.338277 0 255 0
0.196859 0.018967 -0.260166 255 0 0
0.484819 0.195656 -0.039641 153 76 0
-0.157841 -0.037245 0.600354 0 255 0
-0.137592 -0.238361 -0.132571 0 0 255
-0.227034 -0.649941 -0.165902 0 255 0
-0.086153 -0.249926 0.228287 0 0 255
-0.119343 -0.104273 -0.276172 255 0 0
0.170855 0.248094 -0.192291 255 0 0
0.115723 -0.039806 -0.290865 255 0 0
0.255238 0.190303 -0.246264 255 0 0
0.247308 -0.088660 0.089036 0 255 0
-0.168678 -0.149270 0.188774 255 0 0
-0.283323 -0.744502 -0.263447 127 0 127
-0.130431 0.436218 -0.253780 255 0 0
-0.395333 -0.089547 -0.068930 0 255 0
0.230914 -0.111103 0.273909 255 0 0
-0.475427 0.323835 0.111279 127 127 0
0.041481 0.643023 -0.272734 255 0 0
-0.078834 -0.091511 0.072507 0 255 0
-0.166530 0.670880 -0.319576 255 0 0
0.306555 0.403830 -0.246217 255 0 0
0.206728 -0.145865 0.390050 255 0 0
0.443316 -0.011361 0.149528 0 255 0
-0.365645 0.659002 -0.270939 255 0 0
0.259130 -0.688489 -0.265853 255 0 0
-0.139122 0.188464 -0.245480 255 0 0
-0.041611 -0.108935 0.505197 255 0 0
-0.416582 0.012558 0.150374 0 255 0
0.362076 0.480096 -0.267575 255 0 0
-0.154602 0.128541 -0.260606 255 0 0
0.279542 0.013190 0.047113 0 255 0
-0.388874 -0.108053 -0.111878 0 127 127
0.035410 -0.132795 0.260590 0 0 255
-0.379945 0.449841 -0.253681 255 0 0
0.104332 0.190030 -0.245263 255 0 0
0.050725 0.007686 -0.149246 0 255 0
0.151459 -0.205691 0.212528 0 0 255
-0.066975 -0.016663 0.602459 0 255 0
0.455655 -0.668030 0.240265 0 127 127
0.380558 0.286150 0.034483 76 0 153
-0.241462 0.550130 -0.285812 255 0 0
-0.435260 -0.049499 -0.053111 127 0 127
0.108620 0.052273 -0.248828 255 0 0
0.038280 0.106353 -0.268917 255 0 0
-0.318307 -0.088765 -0.045894 0 255 0
0.316944 -0.610794 0.210548 0 127 127
0.418233 -0.085767 0.069349 0 255 0
-0.331151 0.651783 -0.273122 255 0 0
0.096493 -0.570854 -0.046389 255 0 0
-0.328041 0.545506 -0.241059 255 0 0
0.212073 -0.103034 -0.298111 255 0 0
0.217798 -0.089402 0.272605 0 255 0
-0.069575 -0.161818 0.373090 0 0 255
0.238441 -0.094435 0.476571 0 255 0
-0.470846 0.148493 -0.038459 127 0 127
0.153083 0.449132 -0.211964 255 0 0
0.350869 -0.086527 0.242428 0 255 0
0.025854 0.008679 0.247909 0 255 0
-0.212440 0.661232 -0.277666 255 0 0
-0.225048 -0.196745 -0.285964 255 0 0
-0.261066 0.253568 -0.194950 255 0 0
-0.094114 0.065832 -0.284095 255 0 0
0.447350 0.046576 -0.066981 153 76 0
0.353172 -0.172283 -0.296573 255 0 0
0.371925 0.656365 -0.314494 255 0 0
0.485966 -0.714235 0.250627 0 127 127
0.380440 -0.108787 -0.139481 76 0 153
0.288441 0.012561 0.365760 0 255 0
0.283259 -0.180509 -0.251899 255 0 0
0.301651 0.722483 -0.341613 255 0 0
-0.277638 -0.121968 -0.274211 255 0 0
-0.266976 0.611989 -0.261942 255 0 0
-0.195137 0.371516 -0.246846 255 0 0
0.163061 0.312044 -0.236138 255 0 0
-0.144798 0.084336 -0.236237 255 0 0
0.071660 -0.247593 0.299496 0 0 255
-0.125318 0.738105 -0.343117 255 0 0
-0.086737 0.009373 0.249490 0 255 0
0.460986 -0.011571 -0.128338 153 76 0
0.350286 0.057422 -0.287246 255 0 0
-0.081558 -0.211112 0.373090 0 0 255
-0.462287 -0.023526 -0.128240 127 0 127
-0.261356 0.638997 -0.312797 255 0 0
0.105983 0.118965 -0.269202 255 0 0
-0.414021 -0.083410 0.499340 0 255 0
-0.312979 -0.619330 0.246227 127 127 0
0.358836 -0.157690 -0.082516 76 0 153
-0.137592 -0.237997 0.101922 0 0 255
0.447366 0.065033 -0.076523 153 76 0
0.269432 -0.011075 -0.292072 255 0 0
0.332489 0.014304 0.284048 0 255 0
-0.138896 -0.635854 -0.120931 0 255 0
0.225084 -0.147470 -0.264616 255 0 0
-0.323064 -0.087915 0.360354 0 255 0
-0.076438 0.698727 -0.333235 255 0 0
-0.379945 0.345915 -0.218861 255 0 0
-0.098174 -0.091783 0.359780 0 255 0
0.027624 -0.144225 -0.286477 255 0 0
-0.016457 0.124395 -0.221587 255 0 0
0.288660 -0.678552 -0.294209 255 0 0
0.394157 0.128831 -0.236296 255 0 0
-0.228817 0.610407 -0.257986 255 0 0
-0.052947 -0.190237 0.373090 0 0 255
-0.246739 0.162225 -0.205250 255 0 0
-0.004129 -0.092031 -0.092752 0 255 0
-0.060028 0.766473 -0.347436 255 0 0
0.060505 -0.132795 0.227125 0 0 255
0.092319 -0.259628 -0.117348 0 0 255
-0.129781 0.231894 -0.239449 255 0 0
-0.070492 -0.100164 0.525573 255 0 0
-0.057181 -0.091021 -0.012512 0 255 0
0.376400 0.716511 -0.291201 255 0 0
0.069828 -0.274345 0.104727 0 0 255
0.475200 0.236374 0.033972 204 51 127
0.215166 -0.112721 0.342113 255 0 0
-0.042102 0.161681 -0.254689 255 0 0
0.101142 0.153797 -0.208260 255 0 0
-0.034205 0.156057 -0.210176 255 0 0
0.343247 0.003325 0.523971 0 255 0
0.256160 -0.088610 0.221157 0 255 0
0.540295 -0.767046 0.249410 0 0 255
-0.104767 -0.093397 -0.240143 0 255 0
0.198786 0.011066 -0.057535 0 255 0
-0.064986 0.502227 -0.269194 255 0 0
0.436708 0.275272 -0.067534 76 0 153
-0.074271 -0.115151 -0.274967 255 0 0
0.266325 0.007944 0.469064 0 255 0
0.009921 -0.280850 0.135674 153 76 0
-0.380592 -0.088752 -0.049777 0 255 0
-0.263788 0.134851 -0.214493 255 0 0
0.395137 0.601263 -0.253174 255 0 0
-0.421676 -0.065999 -0.053167 0 255 0
0.126101 0.334699 -0.238431 255 0 0
0.437939 -0.028481 -0.004894 0 255 0
0.264199 -0.110936 0.177004 255 0 0
0.203200 0.011381 0.148527 0 255 0
-0.244257 -0.032426 -0.272974 255 0 0
0.348451 0.199123 -0.199890 255 0 0
0.138935 -0.115288 0.497241 255 0 0
-0.289053 0.558294 -0.284408 255 0 0
0.192786 0.606103 -0.302809 255 0 0
-0.316334 0.033579 -0.255702 255 0 0
-0.009949 -0.177217 -0.285090 255 0 0
0.113586 0.009543 0.124233 0 255 0
-0.013763 -0.746888 0.655423 204 51 127
-0.191683 -0.624965 -0.116235 0 255 0
0.105756 -0.214580 0.373090 0 0 255
-0.277253 -0.108194 -0.135831 0 127 127
-0.282222 0.695734 -0.283881 255 0 0
-0.245541 0.272539 -0.189403 255 0 0
0.419378 -0.087737 0.377416 0 255 0
-0.338135 0.773691 -0.325237 255 0 0
0.548447 -0.778557 0.275067 0 0 255
-0.102308 -0.097707 0.508748 0 255 0
0.212793 0.460881 -0.262868 255 0 0
0.242446 0.170769 -0.202199 255 0 0
0.248395 0.002932 0.520782 0 255 0
-0.080370 -0.082447 -0.240683 0 255 0
0.103624 -0.102011 -0.288251 255 0 0
-0.295030 0.007693 0.480666 0 255 0
0.174407 -0.154208 -0.262022 255 0 0
0.135522 0.010403 0.049915 0 255 0
-0.054388 0.081485 -0.234078 255 0 0
-0.063345 -0.132795 0.360772 0 0 255
0.189017 0.184246 -0.203385 255 0 0
0.222503 -0.128570 -0.067432 76 0 153
-0.445976 0.212688 0.022246 153 0 76
0.394157 -0.090790 -0.298108 255 0 0
0.151459 -0.140308 0.296297 0 0 255
0.158531 -0.579901 0.140636 0 127 127
-0.176989 0.353041 -0.240288 255 0 0
-0.350842 0.013946 -0.004152 0 255 0
0.003420 -0.512091 0.185394 127 0 127
-0.131060 -0.122492 -0.075176 0 127 127
-0.509932 0.324794 -0.087801 127 127 0
0.369245 0.387286 -0.249061 255 0 0
0.101089 -0.204865 -0.171259 0 0 255
0.025028 -0.525780 0.051055 255 0 0
0.162317 0.017797 -0.293285 255 0 0
-0.137592 -0.234975 0.222505 0 0 255
0.310466 0.087507 -0.275976 255 0 0
-0.210802 -0.084053 0.594295 0 255 0
0.089276 0.550169 -0.238420 255 0 0
-0.041556 -0.052400 -0.241887 0 255 0
0.394157 0.584944 -0.276865 255 0 0
0.119191 0.009346 0.194244 0 255 0
0.104200 -0.092790 0.412367 0 255 0
-0.199083 -0.089778 0.320292 0 255 0
0.480352 0.258733 -0.067072 153 76 0
-0.051308 -0.088980 -0.288798 255 0 0
0.050935 -0.208524 0.373090 0 0 255
-0.199295 -0.116489 0.430630 255 0 0
0.196788 -0.112192 -0.111792 76 0 153
-0.066582 0.009248 0.261447 0 255 0
-0.353184 -0.099017 0.543852 0 255 0
-0.012421 -0.682130 0.525985 127 0 127
-0.095133 0.724992 -0.298684 255 0 0
-0.177590 -0.154093 -0.102110 0 127 127
0.388593 0.064556 -0.244005 255 0 0
0.402598 0.012234 -0.073706 0 255 0
-0.149168 -0.095125 -0.177835 0 255 0
-0.378345 0.253723 -0.210024 255 0 0
0.085665 0.590018 -0.255517 255 0 0
-0.054939 -0.522964 0.126895 153 0 76
0.236345 0.369523 -0.198269 255 0 0
0.032741 0.613731 -0.259065 255 0 0
-0.059092 0.008943 0.225346 0 255 0
0.394157 0.714862 -0.334229 255 0 0
-0.117095 0.009712 -0.110703 0 255 0
0.221641 0.011847 0.139461 0 255 0
-0.429858 -0.028849 0.253742 0 255 0
-0.079902 -0.151256 -0.287811 255 0 0
-0.052486 -0.132795 0.268625 0 0 255
0.289682 0.010670 -0.106281 0 255 0
-0.431853 -0.025457 -0.100918 127 0 127
0.261681 -0.094116 0.475345 0 255 0
0.017979 -0.712568 0.649247 127 0 127
0.391432 0.483234 -0.220185 255 0 0
0.252195 0.215540 -0.198195 255 0 0
0.354891 0.549570 -0.281813 255 0 0
-0.293263 -0.114929 0.012355 255 0 0
-0.111861 -0.197504 -0.223807 0 0 255
0.143800 -0.090303 -0.028601 0 255 0
0.228293 0.768170 -0.349678 255 0 0
-0.412383 -0.086652 0.013873 0 255 0
-0.174441 0.007269 0.467449 0 255 0
0.162714 -0.091093 0.381316 0 255 0
0.361334 0.144424 -0.214369 255 0 0
0.480582 0.323739 -0.079641 76 0 153
-0.164626 0.011101 -0.050877 0 255 0
0.133473 0.168779 -0.252278 255 0 0
0.417499 -0.686601 0.227379 0 127 127
-0.070205 0.004921 -0.206102 0 255 0
0.381917 0.629642 -0.305630 255 0 0
-0.024308 -0.772081 0.678462 204 51 127
0.149873 -0.090930 0.322394 0 255 0
-0.413847 0.014137 0.187061 0 255 0
0.317029 0.009417 0.450319 0 255 0
-0.137592 -0.254115 -0.140693 0 0 255
-0.029443 0.584002 -0.296098 255 0 0
-0.437466 0.139803 -0.092569 127 0 127
0.152146 0.504054 -0.273445 255 0 0
0.214047 0.277471 -0.233120 255 0 0
0.241331 -0.113891 -0.105062 76 0 153
-0.053499 0.009290 0.098182 0 255 0
0.090075 -0.091050 -0.049478 0 255 0
0.192387 -0.115649 0.015925 255 0 0
-0.190370 -0.118503 -0.034781 255 0 0
0.151459 -0.219708 -0.176426 0 0 255
0.308084 -0.097583 0.451034 255 0 0
0.100455 0.253041 -0.191706 255 0 0
-0.064108 -0.516246 0.147100 127 127 0
-0.283197 0.671126 -0.279672 255 0 0
-0.036877 -0.274597 0.089435 0 0 255
0.031063 -0.108397 -0.133326 76 0 153
0.016719 -0.157040 -0.089042 0 127 127
-0.124188 0.010072 0.309996 0 255 0
0.123915 0.694655 -0.289309 255 0 0
0.441773 -0.073607 0.067390 0 255 0
-0.416216 0.309084 -0.131328 127 127 0
0.279993 -0.766256 -0.291261 255 0 0
-0.186543 -0.566411 0.191066 127 127 0
0.178850 0.007913 0.447536 0 255 0
0.164523 -0.040159 -0.236750 0 255 0
0.457176 0.077328 -0.110353 153 76 0
-0.416194 0.324132 0.094858 127 127 0
0.338283 0.331681 -0.193524 255 0 0
0.182447 0.599658 -0.258649 255 0 0
-0.298282 0.291085 -0.237218 255 0 0
-0.180532 -0.180156 -0.252035 255 0 0
-0.158887 -0.090691 0.170887 0 255 0
-0.339761 0.013417 -0.019595 0 255 0
-0.111378 -0.273738 -0.023790 0 0 255
-0.053408 -0.573375 0.115270 127 127 0
-0.159174 -0.105493 0.577930 0 255 0
-0.373070 0.623051 -0.259775 255 0 0
-0.036749 0.504169 -0.269647 255 0 0
0.438072 -0.002224 0.342378 0 255 0
-0.143552 0.573142 -0.250036 255 0 0
-0.494764 -0.711828 0.290920 127 127 0
-0.084779 -0.083387 -0.289033 255 0 0
0.114309 -0.273897 -0.002794 0 0 255
-0.119027 -0.194510 0.373090 0 0 255
0.167377 0.458416 -0.214202 255 0 0
-0.011970 -0.599229 0.410960 127 0 127
0.104861 -0.565709 0.122917 0 127 127
0.265914 0.404658 -0.251501 255 0 0
-0.249727 -0.095404 -0.176266 0 255 0
-0.014697 -0.157497 -0.081536 0 127 127
-0.428016 -0.076386 -0.137365 127 0 127
-0.071770 0.431218 -0.255600 255 0 0
-0.337310 -0.663886 0.208380 127 127 0
0.095106 0.483076 -0.220147 255 0 0
0.132300 0.296035 -0.189055 255 0 0
-0.044434 -0.018846 -0.271401 255 0 0
-0.096108 0.003611 -0.264856 255 0 0
-0.375750 0.123961 -0.221743 255 0 0
-0.097051 0.675052 -0.321038 255 0 0
-0.092243 0.189855 -0.199170 255 0 0
-0.341424 0.339847 -0.242398 255 0 0
0.241770 -0.013455 -0.270069 255 0 0
-0.119831 0.002195 -0.223015 0 255 0
-0.002009 -0.147448 -0.068601 0 127 127
0.344856 0.014665 0.184724 0 255 0
0.096728 -0.101800 0.541234 0 255 0
-0.350057 0.745561 -0.345728 255 0 0
0.004353 0.053718 -0.288633 255 0 0
-0.004198 -0.132512 -0.286969 255 0 0
0.140772 0.072537 -0.237139 255 0 0
0.396545 0.776296 -0.324639 255 0 0
0.011452 0.025857 -0.293624 255 0 0
0.293084 0.665889 -0.317829 255 0 0
-0.084600 -0.138848 -0.267934 255 0 0
-0.169763 -0.096596 0.503489 0 255 0
0.401274 0.272140 0.018134 76 0 153
-0.275238 -0.090918 -0.103344 0 255 0
0.135592 -0.149270 0.430636 255 0 0
0.399163 0.010435 0.444424 0 255 0
0.362864 0.303590 -0.235283 255 0 0
0.031996 0.008410 0.202375 0 255 0
0.111614 0.267857 -0.234455 255 0 0
0.009184 -0.274245 0.043074 0 0 255
0.032560 -0.608354 0.380610 127 0 127
-0.156522 -0.107057 0.519407 255 0 0
0.245655 -0.088809 0.053207 0 255 0
0.142097 -0.145914 -0.135203 76 0 153
-0.214596 -0.062871 -0.276499 255 0 0
-0.207945 -0.148631 -0.264168 255 0 0
0.386138 -0.086397 0.045430 0 255 0
-0.362059 0.628266 -0.305221 255 0 0
-0.030148 -0.813227 0.653197 204 51 127
0.219970 -0.197027 -0.245541 255 0 0
-0.441390 -0.118433 -0.105817 127 0 127
-0.010556 -0.274259 0.044889 0 0 255
0.199002 0.637188 -0.312248 255 0 0
0.314767 -0.102234 0.055151 255 0 0
0.085818 -0.091414 0.045474 0 255 0
-0.087184 -0.132795 0.218605 0 0 255
0.113051 0.127883 -0.217513 255 0 0
-0.429753 -0.085167 0.082590 0 255 0
0.437674 0.002300 0.301480 0 255 0
-0.076249 -0.091799 0.278361 0 255 0
-0.346799 -0.661497 0.258088 127 127 0
0.256601 0.769578 -0.314599 255 0 0
-0.483281 0.231049 -0.000306 153 0 76
-0.090920 -0.204684 -0.272474 0 0 255
-0.143329 -0.027930 -0.291364 255 0 0
-0.389623 -0.085739 0.207725 0 255 0
-0.378345 0.734352 -0.323364 255 0 0
0.432739 -0.015250 -0.082445 0 255 0
-0.040015 0.261848 -0.190666 255 0 0
0.380591 0.214491 -0.198284 255 0 0
-0.298996 -0.089193 0.396319 0 255 0
-0.336302 0.646623 -0.311082 255 0 0
0.047604 -0.192370 -0.260459 0 0 255
-0.249850 0.012841 0.173037 0 255 0
0.208097 -0.665862 -0.197414 255 0 0
-0.131758 0.521615 -0.233572 255 0 0
0.007917 -0.594415 0.084751 76 0 153
0.419520 0.004323 0.471635 0 255 0
-0.075026 -0.149270 0.433335 255 0 0
-0.387707 0.321807 -0.019725 127 127 0
0.129241 -0.564149 0.180698 0 127 127
0.007544 0.250960 -0.239900 255 0 0
0.146546 0.010041 0.202530 0 255 0
-0.052964 -0.188854 -0.288513 255 0 0
-0.319751 0.208115 -0.244395 255 0 0
-0.126871 0.113283 -0.225592 255 0 0
0.234172 0.646804 -0.311146 255 0 0
-0.309218 -0.113721 0.385674 255 0 0
0.223858 -0.114228 0.383893 255 0 0
-0.151518 -0.552788 0.184862 127 127 0
-0.001592 0.754450 -0.308927 255 0 0
0.284831 -0.730745 -0.301116 255 0 0
-0.175731 -0.149270 0.288624 255 0 0
-0.170226 -0.089820 0.057619 0 255 0
0.158752 -0.092252 -0.134818 0 255 0
0.436244 0.007026 0.104991 0 255 0
0.291141 -0.110798 0.235475 255 0 0
0.484731 0.201475 -0.015962 153 76 0
-0.137592 -0.269749 0.132206 0 0 255
-0.000399 -0.417099 0.144709 76 0 153
-0.044562 0.291260 -0.188761 255 0 0
0.277223 -0.213624 -0.267038 255 0 0
-0.291193 0.431900 -0.252772 255 0 0
0.169336 -0.630096 -0.145100 255 0 0
0.224631 -0.571904 0.169067 0 127 127
-0.275450 -0.083476 0.585798 0 255 0
-0.374260 -0.046122 -0.196129 0 255 0
0.484827 0.146892 -0.034078 153 76 0
0.032696 -0.106396 0.577509 0 255 0
-0.241018 0.012674 0.158677 0 255 0
-0.011211 -0.146233 0.373090 0 0 255
-0.376186 -0.099565 0.553211 0 255 0
-0.432905 0.323010 -0.032693 127 127 0
0.529828 -0.762530 0.299673 204 51 127
0.302737 0.212954 -0.196442 255 0 0
0.032348 -0.161892 -0.259065 255 0 0
0.537606 0.312295 -0.078040 76 0 153
-0.065806 0.600631 -0.297001 255 0 0
-0.536886 0.295583 0.053372 127 127 0
0.017080 -0.683114 0.086619 76 0 153
0.383940 0.015180 0.279766 0 255 0
-0.153895 -0.597931 0.147933 127 127 0
-0.255210 0.637407 -0.265857 255 0 0
-0.506610 -0.798847 0.245264 153 76 0
-0.098584 -0.219822 -0.259042 0 0 255
-0.253100 0.608673 -0.299393 255 0 0
0.290400 -0.779318 -0.290740 0 255 0
0.050557 -0.132795 0.366958 0 0 255
0.055893 0.124593 -0.218688 255 0 0
-0.364678 0.770649 -0.347385 255 0 0
-0.345205 0.454091 -0.261204 255 0 0
0.267749 -0.658378 -0.204623 255 0 0
0.484852 0.325590 -0.107754 76 0 153
-0.443519 0.041470 -0.117131 127 0 127
0.017220 -0.533330 0.240609 127 0 127
-0.174890 0.406543 -0.251766 255 0 0
0.383264 0.742281 -0.344580 255 0 0
0.386267 0.688387 -0.329588 255 0 0
0.167083 0.545974 -0.280743 255 0 0
0.501438 -0.752730 0.236893 0 0 255
0.357787 0.572712 -0.292669 255 0 0
0.213584 -0.121206 0.441148 255 0 0
0.455643 0.322252 0.020862 76 0 153
-0.000959 -0.541788 0.262279 127 0 127
0.221685 0.011845 0.225025 0 255 0
-0.132636 -0.157623 -0.082548 0 127 127
0.187015 0.069050 -0.282890 255 0 0
0.249295 0.008049 0.463569 0 255 0
-0.213402 0.689738 -0.286309 255 0 0
-0.251046 0.455857 -0.261637 255 0 0
-0.348317 0.582670 -0.295693 255 0 0
-0.434488 0.258922 -0.053938 127 0 127
-0.017459 -0.095683 -0.186097 0 255 0
-0.182309 0.313123 -0.193951 255 0 0
0.315167 -0.008017 -0.268408 255 0 0
-0.335167 0.158766 -0.206267 255 0 0
-0.068259 -0.247593 0.239982 0 0 255
0.377677 0.085631 -0.235729 255 0 0
0.259522 -0.771647 -0.292486 0 255 0
0.305502 -0.045141 -0.300599 255 0 0
-0.365641 0.283114 0.043072 127 127 0
-0.320446 0.012052 -0.063099 0 255 0
-0.006685 0.147844 -0.259391 255 0 0
-0.342198 0.101404 -0.226390 255 0 0
-0.309066 -0.719570 -0.284811 0 255 0
-0.466483 -0.749508 0.259166 153 76 0
-0.296575 0.545144 -0.236788 255 0 0
0.187883 0.442011 -0.210247 255 0 0
0.246713 0.327184 -0.240620 255 0 0
0.101458 0.009005 0.176290 0 255 0
-0.031348 -0.180527 -0.286273 255 0 0
-0.427684 0.252595 0.043046 153 0 76
-0.285198 -0.115465 0.428015 255 0 0
0.089536 0.203472 -0.199225 255 0 0
0.140053 -0.235465 -0.216561 0 0 255
0.016059 -0.092449 0.323877 0 255 0
-0.030783 0.287911 -0.237133 255 0 0
0.257947 0.121128 -0.222765 255 0 0
-0.030477 0.511842 -0.227082 255 0 0
-0.311637 -0.125778 -0.069838 0 127 127
0.197350 0.729272 -0.340024 255 0 0
-0.529239 -0.763743 0.263541 153 76 0
0.111605 0.029110 -0.293760 255 0 0
0.320032 -0.728480 -0.312497 255 0 0
-0.198714 -0.140847 -0.146814 0 127 127
-0.363033 0.285109 0.016781 127 127 0
0.360599 0.591496 -0.250763 255 0 0
0.481559 -0.017679 -0.049052 153 76 0
-0.004826 -0.111864 0.528602 255 0 0
0.108692 -0.091682 0.265222 0 255 0
0.097231 -0.097834 -0.220148 0 255 0
-0.015708 -0.440469 0.094988 76 0 153
-0.198305 -0.626955 -0.183064 0 255 0
-0.296786 -0.800701 -0.247761 0 127 127
-0.300508 -0.109991 -0.121061 0 127 127
-0.485402 0.273703 0.006352 127 127 0
0.241126 -0.111833 -0.275334 255 0 0
-0.246419 0.517139 -0.232467 255 0 0
-0.273552 -0.145327 -0.132386 0 127 127
-0.112686 -0.010419 -0.292099 255 0 0
0.504055 -0.743610 0.296316 204 51 127
-0.023740 0.008643 0.231637 0 255 0
0.000523 0.008890 0.086111 0 255 0
-0.207913 -0.123073 0.199208 255 0 0
-0.103464 0.322189 -0.239918 255 0 0
-0.066408 0.009671 0.068658 0 255 0
-0.081612 0.209853 -0.244213 255 0 0
-0.097335 -0.530598 0.165489 127 127 0
0.138654 -0.098523 -0.238970 0 255 0
-0.112822 0.004837 -0.207494 0 255 0
0.217777 0.195827 -0.244458 255 0 0
-0.222436 0.253677 -0.194940 255 0 0
0.194986 -0.651919 -0.179712 255 0 0
0.176590 0.201661 -0.243647 255 0 0
-0.423901 -0.066749 0.387183 0 255 0
-0.254240 -0.111704 0.123124 255 0 0
-0.029679 0.760996 -0.306874 255 0 0
-0.345771 -0.087457 0.352051 0 255 0
-0.127907 -0.076433 -0.278070 255 0 0
0.277224 0.010188 0.421842 0 255 0
-0.000851 0.387264 -0.249058 255 0 0
0.198149 -0.092432 -0.139362 0 255 0
0.226209 -0.089117 0.032100 0 255 0
0.155747 0.081952 -0.233633 255 0 0
-0.015410 0.738155 -0.347141 255 0 0
0.381474 0.136282 -0.257707 255 0 0
-0.045520 -0.155808 -0.076735 0 127 127
-0.010783 -0.750027 0.612619 204 51 127
0.072314 -0.091994 0.349248 0 255 0
0.352193 -0.640669 0.252227 0 127 127
0.050540 -0.544007 0.016255 255 0 0
-0.266646 -0.831356 -0.316018 76 153 0
0.200247 0.452796 -0.212847 255 0 0
0.364477 -0.045989 0.571858 0 255 0
0.258573 0.159933 -0.255283 255 0 0
0.519204 0.276768 0.096689 76 0 153
-0.243305 -0.088868 0.311251 0 255 0
0.432299 -0.087129 0.363068 0 255 0
0.236546 0.012152 0.306746 0 255 0
-0.314787 0.417605 -0.253319 255 0 0
-0.035845 0.003911 -0.219922 0 255 0
0.422515 0.006252 -0.090625 0 255 0
-0.205434 0.594067 -0.295048 255 0 0
0.051694 -0.172160 0.373090 0 0 255
-0.217073 0.153382 -0.257509 255 0 0
-0.038823 0.190564 -0.199087 255 0 0
-0.307611 0.312294 -0.238528 255 0 0
0.171778 0.200259 -0.199623 255 0 0
0.108393 -0.274526 0.080073 0 0 255
-0.330907 0.001026 0.555031 0 255 0
-0.156036 0.011410 -0.007281 0 255 0
-0.110785 0.062527 -0.285333 255 0 0
-0.323331 0.353411 -0.240325 255 0 0
0.131775 -0.090622 -0.040806 0 255 0
-0.052174 -0.583194 -0.002236 0 255 0
0.468202 0.194158 0.033539 204 51 127
0.245643 -0.116117 -0.004795 255 0 0
-0.030209 -0.782879 0.629476 204 51 127
0.024064 0.091983 -0.233268 255 0 0
-0.333803 -0.098933 -0.206073 0 255 0
0.232392 0.629405 -0.264068 255 0 0
-0.271557 -0.035728 -0.273356 255 0 0
-0.086939 0.346789 -0.239655 255 0 0
-0.379854 -0.094214 0.501692 0 255 0
0.231046 -0.118926 -0.046583 255 0 0
-0.395951 0.015839 0.191262 0 255 0
0.441801 -0.031722 0.075575 0 255 0
0.252231 0.423620 -0.210260 255 0 0
-0.012668 -0.315500 0.111401 153 76 0
-0.314214 0.013875 0.010707 0 255 0
0.148405 0.508143 -0.226190 255 0 0
-0.426652 0.275186 -0.052690 127 127 0
0.151459 -0.237024 0.146754 0 0 255
0.341397 0.665654 -0.277438 255 0 0
-0.022324 0.430624 -0.255455 255 0 0
-0.191499 0.011365 0.324104 0 255 0
-0.517806 0.322620 -0.058548 127 127 0
0.002381 -0.585038 0.374384 127 0 127
0.169846 0.011134 -0.032906 0 255 0
0.176383 -0.122943 -0.075005 76 0 153
-0.301323 -0.111271 0.139458 255 0 0
0.054813 0.151700 -0.211747 255 0 0
0.034426 0.072841 -0.237168 255 0 0
0.037751 -0.132795 0.086751 0 0 255
-0.125179 -0.091154 0.303177 0 255 0
0.418532 0.312850 0.143798 76 0 153
-0.137592 -0.217549 -0.187807 0 0 255
0.323513 -0.113763 -0.106440 76 0 153
-0.075168 -0.208247 -0.276067 255 0 0
-0.305305 0.013851 0.026506 0 255 0
-0.303341 0.365398 -0.201518 255 0 0
0.042088 0.004592 -0.212311 0 255 0
-0.018953 0.168287 -0.252445 255 0 0
0.391509 -0.051422 0.556656 0 255 0
0.031445 -0.650294 0.494133 127 0 127
-0.331395 0.480008 -0.223306 255 0 0
0.123229 0.500262 -0.224290 255 0 0
-0.078645 -0.126171 0.485502 255 0 0
-0.349545 0.351342 -0.199407 255 0 0
0.133605 -0.113121 -0.107222 76 0 153
-0.164035 0.739478 -0.343599 255 0 0
-0.362123 0.564830 -0.286352 255 0 0
-0.280382 0.009854 -0.115409 0 255 0
-0.346397 -0.121322 -0.080151 0 127 127
0.171902 -0.057721 -0.275903 255 0 0
-0.074420 -0.102402 0.546256 0 255 0
0.342539 -0.201095 -0.244030 255 0 0
-0.163845 0.648819 -0.270462 255 0 0
-0.143916 -0.133175 0.469278 255 0 0
-0.133009 0.398018 -0.244860 255 0 0
0.218761 -0.094993 -0.175370 0 255 0
-0.170558 0.191595 -0.198965 255 0 0
0.304835 -0.111551 0.302899 255 0 0
-0.389904 0.014515 0.354804 0 255 0
0.285062 -0.615790 0.230850 0 127 127
0.013902 -0.652586 0.549554 127 0 127
-0.030406 -0.147905 -0.128879 0 127 127
0.394157 -0.187262 -0.271261 255 0 0
-0.135632 -0.091254 0.360309 0 255 0
-0.136806 0.356447 -0.196629 255 0 0
0.221187 0.012028 0.095176 0 255 0
-0.129137 -0.247593 0.329551 0 0 255
0.023624 -0.728534 0.641224 127 0 127
0.174761 0.754916 -0.308887 255 0 0
0.286091 0.364390 -0.241436 255 0 0
0.275398 -0.086580 -0.223354 0 255 0
0.377950 -0.119706 -0.080140 76 0 153
0.241790 0.129557 -0.260226 255 0 0
-0.367598 0.315755 -0.236514 255 0 0
-0.389858 -0.046447 0.552092 0 255 0
0.222872 -0.089348 0.251744 0 255 0
0.121926 -0.068588 -0.289655 255 0 0
-0.344462 -0.804790 -0.316502 0 127 127
-0.378980 0.248867 -0.240120 255 0 0
-0.032005 -0.104097 0.558921 0 255 0
0.134621 0.589619 -0.297803 255 0 0
0.014075 0.449880 -0.215872 255 0 0
0.405453 -0.064801 -0.183843 0 255 0
-0.151254 -0.093214 0.435042 0 255 0
0.128430 0.594128 -0.256853 255 0 0
0.306726 0.026385 -0.293646 255 0 0
0.320651 0.591145 -0.294179 255 0 0
0.066149 -0.119325 -0.083510 76 0 153
-0.337340 -0.091135 -0.108653 0 255 0
0.028923 0.540467 -0.282878 255 0 0
-0.360427 0.408103 -0.251985 255 0 0
0.036202 0.153056 -0.251424 255 0 0
0.394157 0.150520 -0.220918 255 0 0
-0.125523 0.703856 -0.331124 255 0 0
-0.081165 0.380891 -0.248163 255 0 0
0.397867 0.342305 -0.211328 255 0 0
-0.306006 0.740603 -0.299689 255 0 0
0.412336 -0.143693 -0.067096 76 0 153
0.408267 -0.086525 0.324834 0 255 0
-0.197055 -0.091699 0.417382 0 255 0
-0.161579 0.329193 -0.240902 255 0 0
0.022238 0.318021 -0.236743 255 0 0
-0.013914 -0.549174 0.251468 127 0 127
0.373429 -0.088975 -0.063959 0 255 0
-0.184473 0.616810 -0.264220 255 0 0
0.202478 0.487634 -0.221246 255 0 0
-0.470692 0.227211 0.017997 153 0 76
-0.261865 0.007102 0.483023 0 255 0
-0.137592 -0.165530 0.368093 0 0 255
0.101536 -0.091194 -0.061189 0 255 0
0.418167 0.325905 0.116105 76 0 153
-0.303960 -0.058204 -0.217208 0 255 0
0.130453 0.620641 -0.307223 255 0 0
0.123124 0.010165 -0.066138 0 255 0
-0.363026 0.000156 0.551423 0 255 0
-0.048147 -0.121996 0.495530 255 0 0
0.151459 -0.212694 0.159555 0 0 255
-0.015040 -0.762397 0.599951 204 51 127
0.137103 0.109196 -0.272273 255 0 0
-0.285703 0.706741 -0.332134 255 0 0
0.277839 0.009090 -0.292919 255 0 0
0.357596 0.550629 -0.238544 255 0 0
0.335498 0.536252 -0.238054 255 0 0
-0.041158 -0.048180 -0.274798 255 0 0
0.189697 0.377483 -0.199267 255 0 0
0.270908 -0.088591 -0.016353 0 255 0
0.134397 -0.270740 -0.059880 0 0 255
-0.221171 -0.111419 0.442044 255 0 0
-0.032457 -0.274126 0.027359 0 0 255
0.337263 0.701216 -0.330200 255 0 0
-0.194645 -0.113525 0.366876 255 0 0
0.335947 -0.116470 -0.274820 255 0 0
-0.035033 0.445092 -0.258999 255 0 0
0.189150 -0.112545 0.092952 255 0 0
0.205261 0.011348 0.191994 0 255 0
-0.014997 -0.213267 -0.272474 0 0 255
-0.038075 -0.057838 -0.290107 255 0 0
0.008319 -0.132795 0.355456 0 0 255
-0.130916 0.117279 -0.269775 255 0 0
-0.101874 0.265996 -0.193889 255 0 0
0.275932 0.013231 0.214832 0 255 0
-0.392062 0.010091 0.460150 0 255 0
0.295479 0.373907 -0.198818 255 0 0
0.251987 -0.088782 0.147528 0 255 0
0.002171 -0.052923 -0.275347 255 0 0
-0.051003 0.667722 -0.280756 255 0 0
0.267205 0.739033 -0.343443 255 0 0
-0.200877 0.317746 -0.239294 255 0 0
-0.300058 0.502521 -0.269262 255 0 0
0.018601 -0.277986 0.099210 153 76 0
-0.137468 -0.132795 0.044887 0 0 255
0.391465 -0.076334 -0.195214 0 255 0
0.285875 0.013119 -0.013419 0 255 0
-0.310070 0.325395 -0.195511 255 0 0
-0.477663 0.323602 -0.058238 127 127 0
0.397867 0.335910 -0.227417 255 0 0
-0.391543 -0.683580 0.271928 127 127 0
0.132851 -0.537058 0.158563 0 127 127
-0.307151 -0.119406 -0.309902 255 0 0
0.484887 0.258411 -0.026817 153 76 0
0.270977 0.013125 0.254252 0 255 0
0.006736 -0.095620 -0.185040 0 255 0
-0.054231 -0.250761 0.226600 0 0 255
0.270111 0.013172 0.088166 0 255 0
-0.101956 0.318442 -0.194467 255 0 0
0.114965 -0.101043 0.535884 0 255 0
0.014775 -0.222648 -0.251369 0 0 255
0.488081 0.278905 0.149400 76 0 153
-0.223885 -0.111928 0.314066 255 0 0
-0.346049 -0.088051 0.384426 0 255 0
0.212084 0.006677 -0.172241 0 255 0
-0.223879 0.008391 -0.139257 0 255 0
0.014241 -0.247593 0.331825 0 0 255
-0.263145 0.001036 0.547695 0 255 0
-0.317980 0.066003 -0.284031 255 0 0
0.067758 -0.102928 0.549794 0 255 0
0.030433 -0.678601 0.572152 127 0 127
-0.020740 0.384653 -0.200166 255 0 0
0.117718 -0.092030 0.191570 0 255 0
0.250305 -0.088674 0.253905 0 255 0
0.441685 -0.080250 -0.139676 153 76 0
0.044730 0.609258 -0.303767 255 0 0
-0.002275 -0.033550 0.607564 0 255 0
-0.232404 0.469530 -0.216881 255 0 0
0.003053 -0.091815 0.024953 0 255 0
-0.001719 0.008156 0.192309 0 255 0
0.170543 0.009417 0.407172 0 255 0
0.052797 -0.517928 0.160886 153 0 76
-0.005322 -0.694411 0.143584 76 0 153
0.375941 0.202180 -0.245018 255 0 0
-0.230011 -0.045332 -0.290632 255 0 0
-0.112034 -0.093437 -0.151677 0 255 0
-0.032919 0.009065 0.319636 0 255 0
0.348888 0.724909 -0.298315 255 0 0
-0.235771 0.748543 -0.346773 255 0 0
0.218762 0.010375 0.397141 0 255 0
0.323884 0.100142 -0.230328 255 0 0
-0.431032 0.263467 0.100910 153 0 76
-0.344091 0.474621 -0.266234 255 0 0
-0.018007 -0.091619 0.025308 0 255 0
-0.384762 -0.096927 -0.172163 0 255 0
-0.063432 -0.205283 -0.252384 255 0 0
-0.258179 -0.123764 -0.072916 0 127 127
-0.141825 -0.061425 -0.276332 255 0 0
-0.056851 0.550466 -0.282080 255 0 0
0.350921 0.373004 -0.198705 255 0 0
-0.285264 0.226406 -0.194853 255 0 0
0.102048 -0.273697 0.122691 0 0 255
-0.052713 0.633445 -0.265469 255 0 0
0.427715 -0.021714 -0.135162 0 255 0
-0.266493 0.285504 -0.188674 255 0 0
-0.148962 0.468331 -0.220425 255 0 0
0.345752 -0.818225 -0.317020 127 127 0
0.466466 -0.788724 0.285474 153 0 76
0.443356 -0.084912 0.138199 0 255 0
0.032976 -0.600761 0.328140 127 0 127
0.083685 -0.541824 0.051086 255 0 0
0.247635 -0.111047 0.243129 255 0 0
-0.141950 0.706284 -0.292342 255 0 0
0.275756 0.005010 0.500578 0 255 0
0.482226 0.276391 -0.102474 76 0 153
0.162985 0.386234 -0.204646 255 0 0
0.236410 0.598689 -0.300557 255 0 0
-0.044172 -0.271589 0.181081 0 0 255
-0.087229 0.736640 -0.346607 255 0 0
-0.002006 -0.258983 0.209985 0 0 255
0.151459 -0.175365 0.099917 0 0 255
0.485293 0.263312 0.101515 204 51 127
0.083701 0.286041 -0.233507 255 0 0
0.322357 0.469374 -0.220682 255 0 0
-0.071024 0.442355 -0.210330 255 0 0
0.113393 0.009701 0.102155 0 255 0
0.308554 0.336111 -0.241873 255 0 0
-0.055293 -0.092510 -0.132868 0 255 0
0.013278 -0.092874 0.139924 0 255 0
-0.150068 0.297749 -0.234692 255 0 0
-0.139313 0.043599 -0.252234 255 0 0
-0.194158 -0.000289 0.552409 0 255 0
-0.378345 0.265580 -0.221088 255 0 0
-0.263852 0.004356 0.511935 0 255 0
0.135863 -0.049037 -0.239248 0 255 0
0.068061 0.010068 -0.044624 0 255 0
0.311651 -0.804085 -0.352946 0 255 0
0.289264 -0.088017 0.043491 0 255 0
0.109392 0.216518 -0.196021 255 0 0
0.295160 -0.772281 -0.343965 0 255 0
-0.006658 0.200228 -0.199630 255 0 0
-0.347531 0.063688 -0.244346 255 0 0
0.121475 -0.559297 -0.033448 255 0 0
0.070239 0.498014 -0.268210 255 0 0
0.048813 0.414758 -0.252920 255 0 0
-0.191394 -0.104308 0.571196 0 255 0
-0.360206 0.544494 -0.284101 255 0 0
0.285688 -0.145156 -0.137172 76 0 153
0.130366 0.009755 -0.292947 255 0 0
-0.322229 -0.788641 -0.315298 0 127 127
0.397867 0.251259 -0.221443 255 0 0
0.083731 0.534674 -0.277382 255 0 0
0.184043 -0.149270 0.211542 255 0 0
0.179186 -0.084647 0.599374 0 255 0
0.013173 -0.074519 -0.289406 255 0 0
0.185180 0.478999 -0.223057 255 0 0
-0.228741 -0.626717 0.221033 127 127 0
0.439324 -0.079836 0.348276 0 255 0
0.086067 -0.269725 0.188278 0 0 255
0.059953 -0.245716 0.373090 0 0 255
0.102318 0.392991 -0.205661 255 0 0
0.023103 -0.118006 -0.087838 76 0 153
0.212918 -0.120510 -0.079453 76 0 153
0.469181 0.302340 0.175734 76 0 153
-0.461782 -0.744523 0.295458 153 0 76
0.279123 0.247207 -0.237323 255 0 0
-0.373925 0.013075 -0.039515 0 255 0
-0.187079 0.137081 -0.217015 255 0 0
0.088986 0.007712 0.428510 0 255 0
0.446105 -0.020897 -0.112753 153 76 0
0.058887 -0.566981 0.004761 255 0 0
-0.179599 0.009781 0.405475 0 255 0
0.197738 0.695985 -0.332268 255 0 0
-0.373044 0.012112 -0.064796 0 255 0
0.201114 0.524628 -0.278485 255 0 0
0.462342 -0.113770 -0.092264 153 76 0
-0.138499 0.010118 0.204572 0 255 0
0.021062 -0.266404 -0.082304 0 0 255
0.115338 -0.211508 -0.263302 255 0 0
0.261989 -0.116682 -0.091779 76 0 153
0.048182 -0.813388 0.638330 153 0 76
-0.428935 -0.041335 0.058938 0 255 0
-0.378345 0.485849 -0.265133 255 0 0
0.312212 0.356737 -0.244770 255 0 0
-0.135731 0.237776 -0.193510 255 0 0
-0.025282 0.620511 -0.261267 255 0 0
-0.379945 0.468377 -0.235311 255 0 0
0.078840 0.286961 -0.188696 255 0 0
0.257984 0.683029 -0.279775 255 0 0
-0.433697 0.114535 -0.086457 127 0 127
-0.018978 -0.503520 0.123270 153 0 76
-0.255298 -0.089994 0.399565 0 255 0
0.200441 -0.147686 -0.129652 76 0 153
-0.217877 -0.146730 -0.130192 0 127 127
-0.470838 0.139832 -0.063655 127 0 127
-0.288590 -0.110842 0.189568 255 0 0
0.087508 0.360222 -0.241014 255 0 0
0.244583 0.290458 -0.193135 255 0 0
-0.273071 0.010134 0.429722 0 255 0
0.168794 0.635318 -0.270231 255 0 0
-0.038359 -0.173574 -0.066372 0 0 255
0.074338 -0.179042 -0.252463 255 0 0
0.168378 0.010675 0.123409 0 255 0
-0.321420 0.279428 -0.232848 255 0 0
-0.161467 0.010169 -0.099350 0 255 0
0.066422 0.350759 -0.240057 255 0 0
-0.088977 -0.200180 -0.244327 255 0 0
0.048396 -0.091985 0.078098 0 255 0
0.245444 -0.111747 0.341966 255 0 0
-0.047209 -0.225851 0.373090 0 0 255
-0.188038 -0.050540 0.597311 0 255 0
-0.187078 0.740378 -0.343914 255 0 0
0.007951 -0.093211 0.171722 0 255 0
0.015946 -0.366222 0.097379 153 76 0
-0.205207 -0.643649 -0.211276 0 255 0
0.021113 0.582680 -0.291661 255 0 0
-0.200426 -0.614686 -0.142655 0 255 0
-0.142879 0.047906 -0.290810 255 0 0
-0.490941 -0.756408 0.268875 153 76 0
0.198128 0.008217 -0.145602 0 255 0
-0.226854 -0.092734 -0.140683 0 255 0
-0.274276 0.007433 -0.155016 0 255 0
0.043151 -0.271491 0.183800 0 0 255
0.249852 -0.114105 0.042588 255 0 0
0.013313 -0.132795 -0.008268 0 0 255
-0.086723 -0.036155 -0.291018 255 0 0
-0.013700 -0.610016 0.315006 127 0 127
-0.122142 -0.205229 -0.168664 0 0 255
-0.054624 -0.274293 0.106174 0 0 255
-0.061853 0.008943 0.154370 0 255 0
0.016670 -0.206892 -0.255592 255 0 0
0.130224 0.010210 0.075350 0 255 0
0.135608 -0.087699 -0.288852 255 0 0
0.348922 0.011538 0.411516 0 255 0
0.052601 -0.553044 0.161119 153 0 76
-0.385057 -0.089837 0.433209 0 255 0
-0.396757 0.325265 0.119129 127 127 0
-0.171606 0.077322 -0.279791 255 0 0
-0.273802 0.531699 -0.280411 255 0 0
-0.021549 -0.542230 0.126969 76 0 153
-0.360651 0.014869 0.302151 0 255 0
-0.409607 -0.085462 0.211766 0 255 0
0.275644 -0.119078 0.481312 255 0 0
-0.007770 -0.087283 -0.278055 255 0 0
-0.480613 -0.764540 0.236744 153 76 0
0.250930 -0.089429 0.361174 0 255 0
0.310776 -0.101050 0.008099 255 0 0
0.176077 -0.149270 0.347318 255 0 0
-0.098064 -0.126467 0.485213 255 0 0
-0.204451 0.560137 -0.241658 255 0 0
0.085947 -0.076260 -0.278050 255 0 0
0.271657 0.749834 -0.302941 255 0 0
-0.058403 0.114084 -0.266021 255 0 0
0.311358 0.008400 -0.140102 0 255 0
0.383623 -0.144107 -0.138122 76 0 153
-0.306276 0.368206 -0.241822 255 0 0
-0.378345 0.286098 -0.218165 255 0 0
-0.019476 -0.668522 0.130126 76 0 153
0.020919 -0.810804 0.659391 153 0 76
0.274929 0.187770 -0.199417 255 0 0
-0.422600 -0.048480 -0.041038 0 255 0
0.339547 -0.775104 -0.318227 127 127 0
0.119731 -0.009655 0.594306 0 255 0
-0.430686 -0.072405 0.218266 0 255 0
-0.149406 -0.108724 0.503470 255 0 0
0.350332 0.130793 -0.259763 255 0 0
0.434720 -0.070494 -0.051379 0 255 0
-0.115007 0.246984 -0.192422 255 0 0
0.263199 -0.001691 -0.266476 255 0 0
-0.379945 0.658188 -0.282044 255 0 0
-0.340457 -0.146097 -0.129850 0 127 127
0.361175 0.261850 -0.190666 255 0 0
-0.015012 -0.092901 0.163204 0 255 0
0.393280 0.012787 -0.060673 0 255 0
0.003036 -0.093261 0.410294 0 255 0
-0.007282 -0.006665 -0.292257 255 0 0
-0.344533 0.627838 -0.305093 255 0 0
0.001719 0.008697 0.107060 0 255 0
-0.137710 -0.073983 -0.237912 0 255 0
0.278322 -0.685861 -0.219736 255 0 0
0.195774 -0.615261 -0.158924 255 0 0
0.009241 -0.687536 0.640045 127 0 127
0.340722 0.048778 -0.250200 255 0 0
0.038368 0.763147 -0.350487 255 0 0
-0.269886 0.341552 -0.194762 255 0 0
0.168247 -0.090272 0.062287 0 255 0
-0.306648 0.249843 -0.240017 255 0 0
-0.375652 0.731780 -0.300735 255 0 0
-0.053189 -0.566851 0.077067 0 255 0
-0.473896 0.255171 0.090666 153 0 76
0.190542 0.003916 0.505313 0 255 0
-0.379945 0.763847 -0.322954 255 0 0
-0.261441 -0.091815 0.436911 0 255 0
-0.197969 0.757914 -0.350054 255 0 0
0.319150 0.535382 -0.237771 255 0 0
0.176947 -0.113640 -0.105011 76 0 153
-0.497191 0.323036 0.051747 127 127 0
-0.004593 -0.104546 0.562010 0 255 0
-0.111319 -0.144044 -0.292344 255 0 0
0.295179 0.012028 -0.057606 0 255 0
0.135915 0.561768 -0.289346 255 0 0
0.045572 -0.218790 -0.261844 0 0 255
0.106556 0.690888 -0.326583 255 0 0
0.141742 0.539352 -0.278774 255 0 0
-0.179282 0.165506 -0.253390 255 0 0
-0.344259 -0.102201 0.572567 0 255 0
0.382178 -0.086012 -0.278196 255 0 0
-0.105393 -0.269716 0.188296 0 0 255
-0.197605 -0.107796 -0.134009 0 127 127
0.166535 0.720879 -0.341048 255 0 0
0.312656 -0.719537 -0.268293 255 0 0
-0.286328 -0.114635 0.406391 255 0 0
0.366130 -0.087570 0.355109 0 255 0
0.151459 -0.147505 0.327710 0 0 255
-0.298127 -0.090503 -0.092380 0 255 0
0.205035 -0.089503 0.066852 0 255 0
0.151459 -0.255887 -0.032276 0 0 255
-0.019687 0.263813 -0.194075 255 0 0
0.226432 0.212507 -0.243935 255 0 0
-0.201387 -0.115329 0.021399 255 0 0
0.438929 -0.057518 0.355120 0 255 0
-0.378345 0.203226 -0.220542 255 0 0
0.443674 0.201770 0.025318 204 51 127
0.039206 -0.132795 0.133512 0 0 255
-0.323695 0.251262 -0.239868 255 0 0
-0.354953 0.670170 -0.274874 255 0 0
-0.339281 -0.088944 -0.052027 0 255 0
-0.301252 -0.087264 0.051250 0 255 0
0.068645 -0.541371 0.128885 153 0 76
-0.053508 0.502739 -0.228915 255 0 0
-0.127736 0.009937 0.382527 0 255 0
0.151459 -0.225250 0.239150 0 0 255
0.171762 -0.090237 0.037746 0 255 0
-0.137592 -0.186048 0.146333 0 0 255
0.046503 0.645869 -0.310818 255 0 0
0.151459 -0.264524 0.115872 0 0 255
0.300766 -0.105081 0.481311 255 0 0
0.248104 -0.117397 -0.026363 255 0 0
0.151459 -0.205551 -0.207766 0 0 255
0.203471 0.594791 -0.299374 255 0 0
0.109016 0.101299 -0.274949 255 0 0
0.434757 -0.039648 -0.051509 0 255 0
-0.506868 0.320152 0.132291 127 127 0
-0.470091 0.042716 -0.104909 127 0 127
0.110854 -0.132795 0.315158 0 0 255
0.190026 0.161494 -0.205512 255 0 0
0.129102 -0.093429 0.430491 0 255 0
-0.249146 0.219748 -0.241136 255 0 0
-0.025977 -0.586206 0.033867 0 255 0
-0.044712 -0.132795 0.033475 0 0 255
0.257305 0.623133 -0.303694 255 0 0
-0.300378 0.014154 0.135895 0 255 0
0.202581 -0.043288 -0.290718 255 0 0
-0.175830 -0.149270 0.116564 255 0 0
0.423879 0.003094 0.455963 0 255 0
0.157895 0.010781 0.072998 0 255 0
-0.026265 -0.092249 0.104976 0 255 0
-0.105454 -0.182428 -0.251160 255 0 0
-0.186131 0.499903 -0.268651 255 0 0
0.148312 0.315660 -0.194049 255 0 0
-0.179509 0.329521 -0.237907 255 0 0
0.356301 0.710497 -0.333450 255 0 0
0.034899 -0.544878 0.102823 76 0 153
0.245782 0.273957 -0.189236 255 0 0
-0.067429 -0.218439 -0.262799 0 0 255
-0.075360 -0.014614 -0.291923 255 0 0
0.320670 -0.099408 0.231198 255 0 0
-0.048069 -0.262106 -0.104536 0 0 255
0.292659 0.281273 -0.233024 255 0 0
0.424838 -0.086092 0.029884 0 255 0
-0.232430 -0.110591 0.234992 255 0 0
-0.461469 0.194572 0.035893 153 0 76
-0.336947 0.014300 0.316789 0 255 0
0.281791 -0.112267 0.098285 255 0 0
0.486043 0.237895 0.020598 204 51 127
-0.137592 -0.244496 0.175199 0 0 255
0.336373 0.013104 0.370757 0 255 0
-0.290114 0.425898 -0.206363 255 0 0
-0.332783 -0.165551 -0.257656 255 0 0
0.314051 -0.043969 -0.274310 255 0 0
0.032323 -0.101427 -0.288275 255 0 0
0.065324 0.185315 -0.199707 255 0 0
0.048156 -0.762261 0.627863 153 0 76
0.187254 -0.120583 -0.061265 255 0 0
0.154589 0.010444 0.349052 0 255 0
0.292607 0.057253 -0.246872 255 0 0
-0.010352 -0.503520 0.074861 153 0 76
0.228251 -0.167537 -0.256892 255 0 0
-0.120121 0.039737 -0.293870 255 0 0
-0.271121 -0.110690 0.207202 255 0 0
-0.089507 -0.132795 0.027023 0 0 255
-0.236652 0.433225 -0.253081 255 0 0
0.459591 0.256020 0.044595 204 51 127
-0.235032 0.601883 -0.301527 255 0 0
-0.264004 -0.773146 -0.286435 127 0 127
0.123867 0.006564 -0.172861 0 255 0
0.176015 0.007290 -0.162729 0 255 0
-0.307539 0.009840 0.449450 0 255 0
0.079547 0.360918 -0.200845 255 0 0
0.432758 -0.033729 -0.085091 0 255 0
-0.172090 -0.112409 0.096033 255 0 0
-0.536064 0.270093 0.021717 127 127 0
0.309681 0.177078 -0.247061 255 0 0
0.373832 -0.092658 -0.133770 0 255 0
-0.114061 -0.534490 0.145595 127 127 0
0.365717 0.030457 -0.256656 255 0 0
-0.301921 0.617703 -0.259241 255 0 0
0.222920 -0.112149 -0.114258 76 0 153
0.049444 0.136627 -0.263202 255 0 0
0.172708 0.007086 0.466546 0 255 0
-0.033758 0.179648 -0.248585 255 0 0
-0.043248 -0.191317 -0.086021 0 0 255
0.018769 -0.149270 0.427647 255 0 0
-0.382336 -0.090016 -0.080030 0 255 0
-0.033960 -0.124182 -0.273579 255 0 0
0.103492 0.752728 -0.348238 255 0 0
-0.122280 -0.200718 -0.200865 0 0 255
0.228040 0.425771 -0.210583 255 0 0
-0.031181 -0.503520 0.083998 153 0 76
0.394157 0.628912 -0.272496 255 0 0
0.308537 -0.178086 -0.294056 255 0 0
-0.220726 0.006448 -0.173449 0 255 0
-0.028948 0.006788 0.447459 0 255 0
-0.411775 -0.103134 -0.072377 127 0 127
-0.013313 -0.381471 0.117060 153 76 0
0.023631 -0.796840 0.680384 153 0 76
-0.060405 -0.204138 -0.176446 0 0 255
-0.074593 -0.558583 -0.033307 0 255 0
0.497590 0.275611 -0.083334 76 0 153
0.383121 0.088243 -0.275701 255 0 0
0.045024 0.590345 -0.298024 255 0 0
0.126921 -0.091400 -0.079890 0 255 0
-0.105528 -0.024327 -0.272036 255 0 0
0.199370 -0.149270 0.350328 255 0 0
0.238577 -0.667009 -0.163850 255 0 0
0.083529 -0.053489 -0.240981 0 255 0
-0.017777 -0.132795 0.205791 0 0 255
-0.247529 -0.088431 0.142867 0 255 0
0.048142 -0.777717 0.622686 153 0 76
0.207183 -0.613005 0.205816 0 127 127
0.073929 0.657144 -0.273166 255 0 0
0.118986 0.006972 0.454785 0 255 0
-0.429976 -0.062607 0.239840 0 255 0
0.019686 -0.185620 -0.284737 255 0 0
-0.302787 -0.798764 -0.288681 0 127 127
-0.169973 0.698993 -0.329421 255 0 0
0.143726 -0.003452 0.576172 0 255 0
-0.305480 0.003245 0.530196 0 255 0
-0.433175 -0.020802 -0.115993 127 0 127
-0.222169 0.724479 -0.342318 255 0 0
0.484771 0.059280 -0.069327 153 76 0
-0.331572 0.013997 0.004773 0 255 0
0.260235 -0.103646 0.568531 0 255 0
0.370262 -0.027734 -0.309175 255 0 0
0.057684 0.004732 -0.209607 0 255 0
-0.137592 -0.228934 0.286527 0 0 255
0.015975 0.487616 -0.225183 255 0 0
-0.085918 -0.573290 0.125800 127 127 0
0.089730 -0.159021 -0.050256 0 0 255
-0.012506 -0.655965 0.533588 127 0 127
0.015616 0.754090 -0.308810 255 0 0
-0.098964 0.006186 -0.180717 0 255 0
0.103266 0.300802 -0.193507 255 0 0
-0.036866 -0.030193 -0.291268 255 0 0
0.130299 0.056190 -0.247290 255 0 0
0.220460 -0.097101 0.507895 0 255 0
0.397867 0.451832 -0.254000 255 0 0
0.097124 -0.273082 0.139726 0 0 255
0.484381 0.233645 -0.063137 153 76 0
0.387491 -0.085968 0.205216 0 255 0
0.086970 0.743457 -0.349011 255 0 0
0.130568 0.211212 -0.244071 255 0 0
0.175088 0.301635 -0.237499 255 0 0
0.253106 -0.595363 0.220691 0 127 127
-0.258832 0.070789 -0.282238 255 0 0
0.217788 0.402276 -0.202375 255 0 0
-0.094667 0.526188 -0.230631 255 0 0
-0.326928 0.623417 -0.260579 255 0 0
0.392418 0.270682 0.048456 76 0 153
0.203221 0.764094 -0.353446 255 0 0
-0.242337 -0.144481 -0.067673 0 127 127
0.305136 -0.116307 -0.309661 255 0 0
-0.258006 -0.115797 0.428151 255 0 0
0.058068 0.287814 -0.237131 255 0 0
0.032357 -0.172301 -0.064962 0 0 255
-0.434168 0.071946 -0.099527 127 0 127
0.033641 -0.540811 0.181488 127 0 127
0.006295 0.543516 -0.236259 255 0 0
0.490312 0.280796 -0.133760 76 0 153
0.041507 -0.132795 0.114520 0 0 255
-0.121691 -0.149270 0.432927 255 0 0
0.384551 0.355849 -0.200084 255 0 0
-0.228571 0.335211 -0.241747 255 0 0
-0.137592 -0.207627 0.286555 0 0 255
-0.429037 -0.018590 0.060341 0 255 0
-0.159866 0.009716 0.399865 0 255 0
