ply
format ascii 1.0
element vertex 1271
property float x
property float y
property float z
property uchar red
property uchar green
property uchar blue
end_header
0.581837 -0.074662 -0.157129 127 127 0
0.677279 -0.009722 -0.310983 153 0 76
0.181706 -0.231034 0.315613 127 127 0
-0.049718 0.095629 -0.341222 153 76 0
0.285929 -0.709598 0.192577 76 153 0
0.119470 0.413037 -0.212826 204 51 127
0.358546 -0.496848 -0.028620 76 0 153
0.641315 0.254219 -0.355780 153 76 0
-0.681482 0.321369 -0.279136 76 0 153
0.127820 -0.321144 0.315613 127 127 0
0.319332 0.490868 0.284778 153 76 0
0.669010 0.559932 0.343011 153 76 0
-0.253287 0.472982 -0.341222 153 76 0
-0.309186 0.287284 -0.341222 153 76 0
0.633804 -0.638845 0.192577 76 153 0
0.455242 -0.661275 0.192577 76 153 0
-0.533649 0.432447 0.092259 0 0 255
-0.700893 -0.473630 0.002373 76 0 153
0.367547 0.248725 0.313895 127 127 0
-0.652366 -0.213206 0.289564 153 0 76
0.593306 0.268828 0.343011 127 127 0
0.183125 -0.496848 -0.239989 76 0 153
-0.042685 -0.387114 0.313895 255 0 0
0.021170 -0.074662 -0.172650 127 127 0
-0.681482 -0.106232 -0.276191 76 0 153
0.631514 -0.074662 0.103094 127 127 0
-0.700893 -0.351627 0.266730 76 0 153
-0.506834 0.418290 0.284778 153 76 0
-0.681482 -0.270865 -0.217849 76 0 153
0.081845 0.574491 -0.355780 255 0 0
-0.053684 -0.103778 0.212008 127 127 0
0.331110 0.611998 0.333843 153 76 0
-0.484345 -0.103778 0.078128 127 127 0
0.677279 0.270932 -0.296886 153 0 76
0.121970 0.291635 0.395328 127 0 127
-0.710599 0.417786 0.308267 153 0 76
0.291251 -0.021049 0.315613 127 127 0
0.677279 -0.295520 -0.023401 153 0 76
0.246848 -0.103778 0.224447 127 127 0
0.434617 0.271952 0.343011 127 127 0
-0.449105 -0.487319 0.343011 255 0 0
-0.339091 -0.074662 -0.179161 127 127 0
-0.700893 -0.097685 0.216667 76 0 153
0.436561 0.432447 -0.164309 0 0 255
-0.416261 0.444284 0.313895 153 76 0
-0.671811 -0.287219 0.284778 153 0 76
0.458963 0.616261 -0.355780 255 0 0
0.269886 0.441598 -0.341222 153 76 0
0.180512 -0.527119 0.192577 76 153 0
-0.700893 -0.605102 -0.132152 153 76 0
-0.710599 -0.478686 0.286691 153 0 76
-0.267464 0.066379 0.315613 255 0 0
-0.614110 0.529502 -0.018960 76 0 153
0.677279 -0.452134 0.130966 153 0 76
0.405430 -0.103778 -0.249306 127 127 0
-0.219446 0.260265 0.343011 255 0 0
0.335556 0.127521 -0.355780 153 76 0
-0.130304 -0.264099 -0.341222 153 76 0
0.464534 -0.496848 -0.115331 76 0 153
0.107218 -0.496848 -0.009575 76 0 153
0.468437 0.209457 0.315613 127 127 0
-0.156215 0.443625 -0.341222 153 76 0
0.128150 0.505664 -0.384897 255 0 0
0.423865 -0.074662 0.283584 127 127 0
0.093678 -0.103778 -0.308338 127 127 0
-0.681482 -0.538820 0.233487 76 0 153
-0.497215 0.117208 -0.355780 153 76 0
0.677279 0.308940 -0.171379 153 0 76
0.677279 0.577596 -0.081399 153 0 76
-0.090383 -0.472693 0.313895 255 0 0
0.224076 -0.430441 -0.355780 153 76 0
-0.309793 -0.074662 0.206100 127 127 0
-0.450297 0.489385 0.333818 153 76 0
0.628751 0.365923 0.285745 76 0 153
0.251165 0.005523 0.338765 127 127 0
-0.300822 0.508963 0.333818 153 76 0
-0.016003 -0.496848 0.280470 76 0 153
0.516057 0.614732 0.284778 204 51 127
-0.698492 -0.329893 0.313895 153 0 76
0.677279 -0.129428 -0.374869 153 0 76
0.188049 0.471059 0.333818 153 76 0
-0.626146 0.570750 0.218072 153 0 76
-0.436581 0.307076 -0.355780 153 76 0
-0.391331 0.432447 0.120861 0 0 255
-0.607388 -0.496848 0.227558 76 0 153
-0.154658 0.278652 -0.341222 153 76 0
0.281236 0.179062 0.315613 127 127 0
0.155758 -0.074662 -0.071811 127 127 0
-0.138156 -0.444236 -0.355780 153 76 0
-0.126919 0.439727 -0.074694 0 0 255
0.565572 -0.496848 -0.229792 76 0 153
-0.327330 -0.527721 0.192577 76 153 0
0.180167 0.238823 -0.341222 153 76 0
-0.204567 0.439727 0.120079 0 0 255
-0.700893 -0.139906 0.178038 76 0 153
-0.262261 0.370981 -0.355780 153 76 0
0.474558 0.439727 0.021240 0 0 255
-0.681482 0.297880 -0.186573 76 0 153
0.006940 -0.469654 -0.341222 153 76 0
0.411107 -0.415251 -0.355780 153 76 0
0.561773 -0.490941 0.284778 204 51 127
-0.681482 0.064254 0.078602 76 0 153
0.268799 0.551237 0.343011 153 76 0
-0.121979 -0.103778 0.096259 127 127 0
0.657868 0.523663 -0.148332 153 0 76
-0.438239 -0.655043 -0.384897 76 0 153
-0.640300 0.477606 -0.355780 153 76 0
0.640162 0.293102 0.284778 76 0 153
0.001613 -0.365655 -0.341222 153 76 0
-0.526904 -0.357228 -0.355780 153 76 0
0.371473 0.486962 0.375803 76 0 153
-0.311592 -0.456698 0.313895 255 0 0
0.657868 -0.048790 0.205126 153 0 76
0.354469 0.502812 -0.376286 255 0 0
0.602062 0.476207 0.131733 153 0 76
-0.000472 0.393218 0.313895 153 76 0
-0.244405 -0.380599 -0.341222 153 76 0
0.133290 0.439727 0.040261 0 0 255
-0.189588 -0.538096 0.334605 255 0 0
-0.617558 0.128229 0.313895 255 0 0
-0.625676 0.456350 -0.208691 76 0 153
-0.473761 -0.074662 -0.306965 127 127 0
-0.348255 0.576597 0.284778 204 51 127
-0.700893 -0.517456 -0.384611 76 0 153
0.208236 -0.070698 0.315613 127 127 0
0.047459 0.432447 0.116546 0 0 255
-0.522643 0.267993 0.343011 255 0 0
-0.683588 -0.236985 0.337365 255 0 0
0.301989 0.364454 -0.355780 153 76 0
0.591974 0.590161 -0.032876 0 0 255
0.259110 -0.321268 -0.341222 153 76 0
-0.681482 0.332576 0.110175 76 0 153
-0.578758 0.570750 -0.344655 153 76 0
-0.681371 0.575644 0.284778 153 0 76
-0.240266 0.413037 -0.215143 204 51 127
0.677279 0.145399 0.001745 153 0 76
0.358749 0.567281 -0.384897 255 0 0
-0.641268 0.619277 0.308876 204 51 127
-0.700893 0.078359 -0.055325 76 0 153
0.221609 -0.074662 -0.325324 127 127 0
0.236769 -0.166811 0.315613 127 127 0
-0.353294 -0.496848 -0.160628 76 0 153
0.358584 -0.074662 -0.092776 127 127 0
-0.079912 -0.018557 -0.355780 153 76 0
-0.638715 -0.496848 -0.258325 76 0 153
-0.328317 -0.103778 -0.131442 127 127 0
-0.322935 0.224254 -0.341222 153 76 0
-0.058777 -0.443502 -0.341222 153 76 0
-0.127562 -0.003720 0.313895 255 0 0
-0.681482 0.075538 -0.384729 76 0 153
0.150361 0.009090 0.338765 127 127 0
-0.387948 -0.103778 0.122594 127 127 0
-0.700893 0.411085 -0.243330 76 0 153
-0.275724 -0.496848 -0.317554 76 0 153
-0.681482 -0.004048 -0.153114 76 0 153
0.245840 -0.448868 0.313895 127 127 0
-0.451886 -0.103778 -0.216213 127 127 0
0.072895 -0.074662 -0.189739 127 127 0
0.679705 -0.495687 0.320833 127 127 0
-0.358308 0.439727 -0.115162 0 0 255
0.146269 -0.099466 0.284778 127 127 0
-0.458094 -0.074662 0.192321 127 127 0
0.339694 -0.154111 0.315613 127 127 0
0.674028 0.282410 -0.384897 153 0 76
-0.590271 -0.496848 0.174281 76 0 153
0.677279 -0.411597 -0.272327 153 0 76
-0.149523 -0.468356 0.313895 255 0 0
0.677279 -0.207464 -0.255244 153 0 76
0.165228 0.290267 -0.355780 153 76 0
0.057155 0.432447 -0.037081 0 0 255
0.657868 0.416671 0.010980 153 0 76
-0.149930 0.347050 -0.355780 153 76 0
0.593147 -0.103778 -0.066252 127 127 0
-0.109115 0.395518 0.343011 153 76 0
0.657868 0.172063 -0.285726 153 0 76
-0.040106 0.527102 0.284778 153 76 0
-0.681482 -0.535654 -0.199176 76 0 153
0.677279 0.227810 -0.132318 153 0 76
-0.233659 0.570750 -0.347196 153 76 0
-0.169705 -0.496848 0.134706 76 0 153
0.001314 0.345099 0.335735 153 76 0
0.332739 -0.574191 0.192577 76 153 0
-0.502760 -0.625314 0.192577 76 153 0
0.114887 -0.445438 -0.341222 153 76 0
-0.284269 0.502812 -0.379881 255 0 0
-0.194161 -0.633927 0.192577 76 153 0
0.622442 -0.044119 0.343011 127 127 0
-0.681482 0.263425 0.255423 76 0 153
-0.586414 0.323538 0.343011 255 0 0
-0.150904 -0.496848 -0.324154 76 0 153
-0.092288 -0.151168 0.313895 255 0 0
-0.474792 -0.074662 -0.158092 127 127 0
-0.472521 0.439727 -0.117853 0 0 255
0.222513 -0.074662 0.172254 127 127 0
0.063195 -0.192098 0.343011 127 127 0
0.681518 0.003267 0.284778 76 0 153
0.295114 -0.510326 -0.341222 153 76 0
0.189622 0.366799 0.339481 153 76 0
-0.456643 0.478570 0.284778 153 76 0
0.602062 0.461435 0.272787 153 0 76
-0.140275 0.140644 0.315613 255 0 0
-0.681482 0.402790 0.050876 76 0 153
-0.586415 -0.074662 -0.323672 127 127 0
0.657868 -0.538363 -0.038017 153 0 76
-0.681482 -0.406377 -0.266124 76 0 153
-0.693730 0.115815 0.343011 255 0 0
0.081459 -0.074662 0.165611 127 127 0
0.408888 -0.538096 0.332348 127 127 0
0.556575 -0.166330 -0.341222 153 76 0
-0.183204 0.595138 0.339169 153 76 0
0.657868 -0.345692 0.059747 153 0 76
0.643028 -0.332625 0.343011 127 127 0
-0.355900 0.293306 0.395776 0 255 0
-0.257274 -0.074662 -0.204638 127 127 0
0.432422 0.588495 0.342533 153 76 0
-0.093384 0.354900 -0.341222 153 76 0
-0.339206 0.176862 0.338765 255 0 0
0.005081 -0.074662 0.066494 127 127 0
-0.584153 0.570750 -0.022392 153 0 76
0.471604 -0.496848 0.228670 76 0 153
-0.601937 -0.074662 -0.060195 127 127 0
0.038627 0.522673 0.284778 153 76 0
-0.130935 -0.077423 0.284778 127 127 0
-0.558017 -0.293420 -0.341222 153 76 0
0.522568 -0.108098 -0.355780 153 76 0
0.566104 -0.074662 -0.211928 127 127 0
-0.700893 0.407947 -0.340888 76 0 153
0.178460 0.544684 -0.341222 153 76 0
0.677279 -0.305296 0.088426 153 0 76
0.131079 -0.498637 0.313895 127 127 0
-0.700893 -0.648455 -0.298922 153 76 0
-0.112161 0.191204 0.343011 255 0 0
0.677279 0.360088 -0.257887 153 0 76
0.633561 -0.434967 0.313895 76 0 153
0.308286 -0.434711 -0.341222 153 76 0
0.686984 -0.217720 0.298811 76 0 153
0.201495 0.417997 -0.200493 204 51 127
-0.700893 -0.027860 -0.033976 76 0 153
0.542792 -0.103778 0.102352 127 127 0
-0.115057 -0.361971 -0.355780 153 76 0
-0.681482 0.064754 -0.279295 76 0 153
0.677279 -0.156081 0.160205 153 0 76
0.252775 0.233981 -0.355780 153 76 0
0.556136 -0.277609 -0.355780 153 76 0
0.623198 -0.117289 -0.355780 153 76 0
-0.617082 -0.496848 0.074909 76 0 153
0.220197 0.147611 0.315613 127 127 0
-0.700893 -0.256294 -0.314760 76 0 153
0.407942 -0.510289 -0.341222 153 76 0
-0.676575 0.570750 0.224305 153 0 76
-0.457899 0.569320 -0.341222 153 76 0
0.467042 0.502812 -0.379890 255 0 0
-0.681482 -0.218115 -0.056646 76 0 153
0.107538 0.366936 0.284888 0 0 255
-0.503082 -0.149334 -0.341222 153 76 0
-0.616016 0.529502 -0.098586 76 0 153
-0.644138 -0.074662 0.137002 127 127 0
0.677341 0.004020 0.342676 127 127 0
0.421563 0.266542 -0.355780 153 76 0
0.350815 0.059285 -0.355780 153 76 0
-0.577600 0.012820 -0.355780 153 76 0
0.402042 0.419740 -0.229610 204 51 127
0.578314 0.570750 0.283682 0 0 255
-0.189706 -0.496848 -0.040176 76 0 153
0.642574 0.488910 -0.341222 153 76 0
0.321349 0.481752 0.333818 153 76 0
-0.550291 0.405142 -0.341222 153 76 0
-0.234884 -0.278066 -0.341222 153 76 0
-0.289944 0.439727 0.090972 0 0 255
0.686984 -0.409266 0.288511 76 0 153
0.073954 0.221838 0.343011 127 127 0
0.657868 -0.026968 0.051019 153 0 76
0.657868 0.024338 -0.056887 153 0 76
0.359059 -0.437874 0.343011 127 127 0
-0.615508 -0.239203 -0.341222 153 76 0
-0.047180 -0.103778 -0.061348 127 127 0
0.677279 -0.252735 -0.161268 153 0 76
0.565198 -0.550693 -0.384897 76 0 153
0.677279 -0.085082 -0.221527 153 0 76
-0.464352 0.084311 0.338765 255 0 0
-0.431014 0.408028 -0.355780 153 76 0
0.294656 0.432447 -0.175527 0 0 255
0.021957 -0.612999 -0.384897 76 0 153
-0.184355 0.432447 0.257118 0 0 255
-0.383502 -0.105518 0.338765 255 0 0
0.044817 -0.069511 0.313895 127 127 0
-0.142239 -0.103778 0.189779 127 127 0
-0.681482 -0.075392 -0.037054 76 0 153
0.136773 -0.128511 0.338765 127 127 0
0.677279 -0.632101 -0.015037 153 0 76
0.510204 -0.032250 0.338765 127 127 0
-0.596560 0.501263 -0.182995 76 0 153
-0.700893 -0.216569 0.240532 76 0 153
0.657868 -0.508230 0.107124 153 0 76
-0.024356 0.556377 0.343011 153 76 0
-0.244053 -0.167449 -0.355780 153 76 0
0.677279 -0.565935 0.152594 153 0 76
-0.700893 -0.671694 -0.033845 153 76 0
-0.625676 0.478482 0.230713 76 0 153
-0.625676 0.419890 0.282174 76 0 153
0.404719 0.570750 -0.346556 153 76 0
-0.367896 0.432447 0.038100 0 0 255
-0.470438 -0.548886 -0.384897 76 0 153
-0.542361 0.024938 0.338765 255 0 0
-0.173262 -0.359888 -0.355780 153 76 0
0.261009 0.317008 0.284778 0 0 255
0.392255 -0.074662 -0.163503 127 127 0
-0.053578 -0.311344 0.313895 255 0 0
-0.005984 0.391846 -0.355780 153 76 0
-0.681482 0.293747 0.185234 76 0 153
-0.327563 -0.353761 -0.341222 153 76 0
0.052168 0.002524 0.313895 127 127 0
0.606569 0.516098 0.343011 153 76 0
0.441631 -0.103778 -0.300891 127 127 0
-0.681482 0.338050 -0.338555 76 0 153
0.027368 0.338149 -0.341222 153 76 0
-0.165283 -0.074662 -0.077613 127 127 0
0.281688 -0.496848 -0.090097 76 0 153
-0.130023 0.181603 -0.355780 153 76 0
0.377862 -0.454575 -0.341222 153 76 0
0.481053 -0.103778 -0.214599 127 127 0
-0.488684 -0.502067 -0.384897 76 0 153
0.649060 0.288252 0.343011 127 127 0
0.677279 -0.542208 -0.134388 153 0 76
0.657868 0.118407 -0.378751 153 0 76
0.039317 0.439727 -0.173762 0 0 255
-0.016906 0.036636 -0.341222 153 76 0
-0.565017 0.586798 -0.300424 153 0 76
-0.681482 -0.015955 0.090132 76 0 153
-0.411669 -0.334653 -0.341222 153 76 0
-0.203624 -0.049487 0.315613 255 0 0
0.677279 0.369559 0.116498 153 0 76
0.130906 0.170372 0.338765 127 127 0
-0.397242 0.611998 0.335554 153 76 0
-0.110620 -0.655117 0.192577 76 153 0
-0.392902 -0.605744 -0.384897 76 0 153
0.180135 0.483182 -0.200493 204 51 127
-0.621650 -0.196293 0.343011 255 0 0
-0.618591 0.413037 0.157134 76 0 153
-0.700893 0.026892 -0.329045 76 0 153
-0.179069 -0.103778 0.107625 127 127 0
-0.428729 -0.313868 0.315613 255 0 0
-0.700893 -0.513230 0.030987 76 0 153
-0.652581 0.081197 -0.341222 153 76 0
0.657868 0.508182 0.258323 153 0 76
-0.415829 -0.114779 -0.355780 153 76 0
0.098908 0.289098 -0.355780 153 76 0
-0.049725 -0.393608 -0.355780 153 76 0
-0.700893 -0.381541 -0.052828 76 0 153
0.020529 -0.138010 0.313895 127 127 0
0.549938 0.290596 0.347868 127 0 127
0.657868 0.286378 0.165973 153 0 76
0.677279 0.096872 -0.266176 153 0 76
-0.672535 0.161303 -0.341222 153 76 0
0.301115 -0.074662 -0.086438 127 127 0
-0.504466 -0.103778 -0.060931 127 127 0
-0.326147 -0.074662 -0.237285 127 127 0
-0.700893 -0.605962 -0.002343 153 76 0
-0.658647 0.519832 0.284778 153 0 76
-0.211125 0.456161 -0.229610 204 51 127
0.147961 0.103708 0.315613 127 127 0
-0.681482 -0.461042 -0.337439 76 0 153
-0.096616 0.432447 0.005693 0 0 255
0.458410 -0.266843 0.315613 127 127 0
0.594125 0.570750 0.047994 0 0 255
0.657868 0.286683 -0.209949 153 0 76
-0.546989 -0.133448 0.338765 255 0 0
-0.681482 0.009777 -0.067602 76 0 153
-0.681482 -0.341698 -0.254982 76 0 153
0.679541 0.510542 0.316895 153 76 0
-0.681482 -0.294733 0.118721 76 0 153
0.098729 -0.172113 -0.341222 153 76 0
-0.498227 0.494002 -0.355780 153 76 0
0.657868 -0.503117 -0.202561 153 0 76
0.142453 -0.660099 0.192577 76 153 0
-0.480072 -0.010592 0.338765 255 0 0
-0.174146 -0.010371 -0.355780 153 76 0
0.115316 0.209712 -0.355780 153 76 0
-0.681482 -0.015783 -0.283672 76 0 153
-0.335283 -0.660872 -0.384897 76 0 153
-0.339762 -0.074662 0.045084 127 127 0
0.597397 -0.220849 0.313895 127 127 0
0.676722 0.435020 -0.384897 153 0 76
-0.700893 -0.062421 0.151274 76 0 153
0.311919 -0.096190 -0.355780 153 76 0
0.308277 -0.268104 -0.355780 153 76 0
-0.664583 0.570750 -0.291515 153 0 76
-0.568156 -0.103778 -0.224592 127 127 0
-0.587764 0.202162 0.340457 255 0 0
0.114670 -0.103778 -0.175391 127 127 0
-0.668344 0.490024 0.343011 153 76 0
0.677279 0.121780 0.069867 153 0 76
-0.125857 -0.496848 -0.123464 76 0 153
-0.640489 -0.569118 0.192577 76 153 0
-0.700893 -0.093917 -0.213104 76 0 153
0.657868 0.074245 0.122222 153 0 76
0.040664 0.435037 -0.355780 153 76 0
0.340319 0.154427 0.315613 127 127 0
0.095630 -0.551549 -0.384897 76 0 153
0.011910 0.471255 -0.200493 204 51 127
0.323274 0.033307 0.338765 127 127 0
-0.324183 -0.103778 -0.279287 127 127 0
-0.681482 -0.168140 -0.206946 76 0 153
0.677279 0.014787 -0.245530 153 0 76
0.547578 -0.496848 0.122578 76 0 153
0.628967 -0.146847 0.313895 127 127 0
0.021335 0.228322 -0.341222 153 76 0
-0.589429 -0.447990 -0.355780 153 76 0
0.248591 0.266279 0.313895 127 127 0
-0.348533 0.522278 0.284778 153 76 0
-0.700893 -0.375686 0.221179 76 0 153
-0.101006 0.439727 0.180552 0 0 255
0.181807 -0.103778 -0.335665 127 127 0
-0.078567 -0.074662 -0.286995 127 127 0
-0.700893 0.146664 -0.217022 76 0 153
0.677279 -0.470903 -0.104726 153 0 76
-0.681482 -0.300533 0.010252 76 0 153
0.424872 -0.496848 0.177033 76 0 153
-0.264113 0.561196 0.284778 204 51 127
0.358272 -0.590566 -0.384897 76 0 153
-0.551098 -0.175287 0.315613 255 0 0
0.043905 0.570919 -0.384897 255 0 0
0.501412 0.015316 -0.355780 153 76 0
-0.344459 0.114190 -0.341222 153 76 0
0.049415 0.416276 0.313895 153 76 0
0.515175 -0.244258 -0.355780 153 76 0
0.285123 0.345099 0.333233 153 76 0
-0.282096 -0.103778 -0.117049 127 127 0
-0.546301 0.413037 -0.219691 204 51 127
0.142662 -0.103778 -0.246151 127 127 0
0.517501 -0.489093 0.313895 204 51 127
0.540516 0.619277 -0.374684 255 0 0
0.631174 -0.496848 -0.004205 76 0 153
-0.060978 -0.496848 0.095108 76 0 153
0.236027 -0.496848 -0.162450 76 0 153
0.362637 -0.397331 0.315613 127 127 0
0.386856 0.338707 -0.341222 153 76 0
0.677279 -0.569498 -0.369715 153 0 76
-0.035854 0.320231 0.313895 0 0 255
-0.608534 0.413037 0.057543 76 0 153
-0.436771 0.432447 0.104478 0 0 255
-0.423417 0.330540 0.338057 255 0 0
0.630484 0.619277 -0.361146 255 0 0
-0.044302 -0.491995 -0.381307 76 0 153
0.081993 -0.074662 0.002446 127 127 0
0.491817 -0.103778 -0.263686 127 127 0
-0.447089 -0.545375 0.290142 204 51 127
-0.606685 0.529502 0.067452 76 0 153
0.052585 -0.524369 0.192577 76 153 0
-0.488148 -0.496848 0.240211 76 0 153
0.043791 -0.074662 0.239927 127 127 0
-0.049449 0.407970 -0.341222 153 76 0
-0.030696 0.432447 0.274095 0 0 255
0.174569 -0.383244 -0.341222 153 76 0
0.651743 0.108222 0.313895 76 0 153
-0.096671 0.413037 0.293575 153 76 0
0.657868 -0.411164 0.100272 153 0 76
-0.654790 0.324738 0.343011 255 0 0
0.483894 -0.715975 0.192577 76 153 0
0.523758 -0.407095 0.334088 127 127 0
0.139933 0.439727 -0.179240 0 0 255
0.404365 0.502064 0.313895 153 76 0
0.657868 0.207586 0.210781 153 0 76
-0.120562 -0.074662 0.058725 127 127 0
0.350843 -0.322502 -0.341222 153 76 0
-0.184505 -0.496848 -0.287028 76 0 153
0.382840 -0.103778 -0.063015 127 127 0
-0.102222 0.107134 0.313895 255 0 0
0.242703 -0.103778 -0.034104 127 127 0
-0.437403 0.439727 0.212220 0 0 255
0.677279 -0.126864 0.095929 153 0 76
-0.347163 -0.103778 0.209034 127 127 0
-0.047554 0.147585 0.343011 255 0 0
0.251409 0.432447 -0.094341 0 0 255
0.484850 -0.179293 0.315613 127 127 0
0.275366 0.578985 -0.355780 255 0 0
0.331247 0.432447 -0.087833 0 0 255
-0.052630 -0.027357 0.313895 255 0 0
0.160708 0.377576 -0.355780 153 76 0
-0.560347 -0.588275 -0.384897 76 0 153
0.265798 -0.496848 -0.023110 76 0 153
-0.031502 -0.539994 -0.384897 76 0 153
0.498210 -0.554027 0.192577 76 153 0
0.468787 0.352807 -0.355780 153 76 0
0.451356 0.055504 -0.355780 153 76 0
0.364915 -0.496848 0.231003 76 0 153
0.322942 -0.103778 0.131276 127 127 0
0.677279 0.508310 0.168295 153 0 76
0.554157 -0.456802 -0.341222 153 76 0
0.167402 -0.074662 0.169761 127 127 0
-0.417859 -0.103778 -0.114333 127 127 0
-0.681482 -0.191272 -0.163210 76 0 153
0.677279 -0.572288 0.035162 153 0 76
0.193784 -0.492129 -0.341222 153 76 0
-0.668322 -0.496848 0.075323 76 0 153
0.178748 -0.074662 -0.030640 127 127 0
-0.255579 -0.496848 -0.120132 76 0 153
-0.169504 -0.496848 -0.174239 76 0 153
0.446656 0.439727 0.193415 0 0 255
0.308190 -0.103778 0.004882 127 127 0
0.602062 0.466852 -0.043704 153 0 76
-0.664388 -0.034278 0.313895 255 0 0
-0.430459 0.517388 -0.355780 153 76 0
0.638550 0.570750 0.115906 0 0 255
-0.453674 -0.074662 0.136708 127 127 0
0.500637 -0.074662 0.118976 127 127 0
0.657868 -0.176409 -0.294446 153 0 76
0.033397 -0.247364 -0.341222 153 76 0
0.040199 0.432447 0.054456 0 0 255
0.101425 0.131670 -0.341222 153 76 0
0.488647 -0.496848 -0.262774 76 0 153
-0.012824 0.432447 -0.094883 0 0 255
0.333517 -0.229743 -0.341222 153 76 0
0.220021 -0.242660 -0.341222 153 76 0
0.602062 0.508134 -0.071194 153 0 76
-0.652366 -0.087304 0.303592 153 0 76
-0.605080 -0.496848 -0.116865 76 0 153
0.677279 0.449159 0.093672 153 0 76
0.401698 -0.103778 -0.123372 127 127 0
-0.304581 -0.496848 0.233816 76 0 153
-0.578793 0.432447 -0.065554 0 0 255
-0.282191 -0.074662 -0.038415 127 127 0
-0.681482 -0.059584 -0.120062 76 0 153
-0.700893 -0.187623 -0.245716 76 0 153
0.308203 -0.256443 0.338765 127 127 0
-0.009853 -0.074662 -0.065182 127 127 0
-0.247126 0.281537 -0.355780 153 76 0
0.077721 -0.316510 -0.355780 153 76 0
-0.328602 -0.262260 0.338765 255 0 0
0.522883 0.415913 0.284778 153 76 0
0.657868 0.063475 -0.117553 153 0 76
0.297199 0.430409 0.333819 153 76 0
-0.681482 -0.142360 0.097257 76 0 153
0.185861 0.572783 0.343011 153 76 0
-0.178584 0.432447 0.210695 0 0 255
-0.314280 -0.121716 0.338765 255 0 0
-0.014641 -0.565736 0.192577 76 153 0
0.657868 0.234613 0.071070 153 0 76
-0.282054 0.308703 0.297948 0 0 255
-0.158506 0.144540 -0.341222 153 76 0
0.460434 -0.516178 -0.341222 153 76 0
-0.064058 0.155377 -0.341222 153 76 0
0.657868 0.584801 0.236014 153 0 76
-0.388805 -0.491995 -0.361319 76 0 153
0.491376 0.196884 -0.341222 153 76 0
0.538136 0.108753 -0.341222 153 76 0
-0.336672 0.410398 -0.341222 153 76 0
-0.710599 -0.015331 0.288982 153 0 76
-0.476251 0.049653 -0.355780 153 76 0
-0.083718 -0.074662 0.122116 127 127 0
-0.560498 0.491929 -0.229610 204 51 127
-0.416835 -0.074662 -0.237173 127 127 0
-0.104526 -0.496848 -0.221318 76 0 153
0.120899 -0.071851 0.315613 127 127 0
-0.681482 0.126531 0.020476 76 0 153
-0.268346 0.618837 -0.384897 255 0 0
-0.590843 -0.109216 0.313895 255 0 0
0.290436 0.093748 0.338765 127 127 0
-0.700893 0.439837 0.013150 76 0 153
-0.099787 0.537333 -0.341222 153 76 0
-0.571645 -0.032924 0.334100 255 0 0
-0.104660 -0.158201 -0.341222 153 76 0
0.593675 0.437005 0.315613 153 76 0
0.090387 0.088832 -0.355780 153 76 0
-0.239136 -0.705712 0.192577 76 153 0
-0.212057 -0.286068 0.315613 255 0 0
0.657868 0.032904 0.088227 153 0 76
-0.700893 0.349164 -0.004947 76 0 153
0.381096 0.432447 0.168149 0 0 255
-0.382765 -0.074662 -0.321123 127 127 0
-0.346354 0.515655 -0.384897 255 0 0
0.677279 -0.656797 -0.054280 153 0 76
0.046859 -0.103778 -0.275192 127 127 0
-0.330778 -0.682018 0.192577 76 153 0
-0.308314 -0.076769 0.284778 127 127 0
-0.468754 -0.399378 0.315613 255 0 0
-0.284996 -0.713416 -0.384897 76 0 153
-0.100780 0.271069 0.343011 255 0 0
-0.216340 -0.496848 0.051947 76 0 153
-0.028063 -0.103778 -0.248330 127 127 0
-0.645171 0.570750 0.132315 153 0 76
0.551970 0.540038 0.343011 153 76 0
0.677279 -0.152810 -0.130226 153 0 76
-0.311503 -0.507220 0.313895 204 51 127
-0.198534 0.511325 0.333818 153 76 0
0.582354 -0.289141 0.343011 127 127 0
-0.143440 -0.074662 -0.255694 127 127 0
0.677279 -0.027603 -0.362131 153 0 76
0.310983 -0.388610 -0.341222 153 76 0
-0.014609 -0.496848 0.012705 76 0 153
-0.578987 0.370510 0.343011 153 76 0
-0.700893 -0.451372 -0.186394 76 0 153
0.390942 0.340285 0.313895 0 0 255
0.417236 -0.468880 0.343011 127 127 0
-0.403632 0.046373 -0.341222 153 76 0
-0.118010 0.002987 -0.341222 153 76 0
0.190468 0.335494 0.284778 0 0 255
-0.076337 -0.074662 -0.179198 127 127 0
-0.681482 0.607580 -0.318354 76 0 153
0.657868 0.182123 0.142561 153 0 76
-0.607272 0.570750 -0.130267 153 0 76
0.093013 0.603701 0.343011 153 76 0
0.216874 0.432447 0.063734 0 0 255
-0.103044 -0.491995 -0.381106 76 0 153
-0.273609 -0.103778 -0.291736 127 127 0
-0.211089 -0.074662 -0.141178 127 127 0
-0.634718 0.096967 0.343011 255 0 0
0.686984 -0.095047 0.285611 76 0 153
0.233790 0.462291 0.333818 153 76 0
0.227591 -0.074662 -0.267175 127 127 0
0.564785 0.464133 -0.229610 204 51 127
-0.596560 0.413288 -0.169830 76 0 153
0.677279 0.581249 -0.312239 153 0 76
0.508720 -0.639001 0.192577 76 153 0
0.293839 0.529056 0.284778 153 76 0
0.171604 -0.496848 -0.090660 76 0 153
-0.700893 0.522503 0.147771 76 0 153
0.657868 0.000788 0.167026 153 0 76
0.146803 -0.074662 0.086091 127 127 0
-0.123954 -0.192482 0.313895 255 0 0
-0.148808 0.194375 0.315613 255 0 0
0.571197 0.021706 -0.355780 153 76 0
-0.006928 -0.496848 -0.126016 76 0 153
0.415705 -0.245095 -0.341222 153 76 0
0.294324 -0.074662 0.157164 127 127 0
0.657868 0.236582 -0.033497 153 0 76
0.677279 -0.118544 -0.054066 153 0 76
0.300803 0.541238 -0.341222 153 76 0
-0.584812 0.526787 -0.384897 255 0 0
-0.685512 -0.616584 -0.384897 153 76 0
-0.024736 -0.496848 -0.322438 76 0 153
0.558930 0.590161 -0.094751 0 0 255
0.329533 0.466989 -0.355780 153 76 0
0.657868 0.472954 -0.058336 153 0 76
0.284876 -0.074662 -0.184629 127 127 0
-0.186933 -0.611032 -0.384897 76 0 153
0.442054 0.212813 -0.341222 153 76 0
0.331673 -0.074662 -0.025778 127 127 0
0.227745 -0.074662 0.254084 127 127 0
0.367011 -0.103778 0.119096 127 127 0
-0.700893 0.301026 -0.108299 76 0 153
-0.270734 0.492318 -0.229610 204 51 127
-0.681482 -0.225495 0.030951 76 0 153
0.677279 0.501290 -0.257107 153 0 76
-0.408579 -0.103778 0.250938 127 127 0
-0.388255 0.158402 0.315613 255 0 0
0.221690 -0.231427 0.338765 127 127 0
0.677279 -0.573660 -0.290978 153 0 76
-0.244238 0.158874 0.315613 255 0 0
-0.700893 0.245177 -0.197970 76 0 153
0.127309 0.554615 -0.384897 255 0 0
0.657868 -0.544968 0.236034 153 0 76
-0.282540 0.411541 0.343011 153 76 0
0.317819 -0.469415 0.313895 127 127 0
-0.466416 -0.177791 0.338765 255 0 0
0.205963 0.408050 -0.341222 153 76 0
-0.700893 0.208905 -0.118613 76 0 153
-0.375070 -0.589362 0.192577 76 153 0
-0.038043 -0.167249 0.313895 255 0 0
-0.700893 0.042927 -0.218907 76 0 153
-0.652840 -0.578062 -0.384897 76 0 153
-0.278078 -0.496848 0.006126 76 0 153
-0.372542 -0.031111 0.315613 255 0 0
0.581046 -0.074662 0.222190 127 127 0
-0.700893 -0.453166 0.055163 76 0 153
-0.577932 -0.496848 0.023618 76 0 153
-0.697711 -0.037245 -0.384897 76 0 153
-0.120766 -0.564313 -0.384897 76 0 153
0.194265 0.022272 -0.341222 153 76 0
-0.286505 -0.545375 0.304822 204 51 127
0.558557 -0.103778 -0.291113 127 127 0
-0.700893 -0.488596 -0.102215 76 0 153
0.418388 0.439727 -0.123229 0 0 255
0.267806 -0.512447 0.284778 204 51 127
0.353013 0.251364 -0.341222 153 76 0
0.677279 0.361192 -0.149904 153 0 76
0.255217 0.514555 0.313895 153 76 0
-0.219651 -0.074662 -0.232897 127 127 0
0.639961 -0.496848 -0.122780 76 0 153
-0.619404 0.459782 0.341659 153 76 0
0.677279 -0.414180 0.201030 153 0 76
-0.269672 0.413037 0.297837 153 76 0
0.186183 0.529502 0.294467 153 76 0
-0.656307 -0.323071 -0.341222 153 76 0
0.540588 -0.496848 0.008398 76 0 153
-0.681482 0.575837 -0.037509 76 0 153
0.677279 -0.700854 0.159878 153 0 76
-0.521996 -0.519819 0.284778 204 51 127
-0.575786 0.590161 0.268392 153 0 76
-0.681482 0.166471 0.236701 76 0 153
-0.669220 -0.103778 0.058911 127 127 0
-0.700893 0.230775 0.089737 76 0 153
0.460039 0.439727 0.106757 0 0 255
0.677279 0.238798 0.257517 153 0 76
0.446321 0.439727 0.254517 0 0 255
-0.385808 -0.253632 -0.355780 153 76 0
0.677279 -0.021797 -0.146437 153 0 76
0.591697 0.070503 0.313895 127 127 0
0.390363 0.421333 0.343011 153 76 0
0.421514 0.507572 -0.200493 204 51 127
0.494532 -0.440535 0.343011 127 127 0
0.054663 -0.407335 -0.355780 153 76 0
-0.617875 -0.655997 0.192577 76 153 0
-0.079398 -0.496848 -0.157747 76 0 153
-0.582811 -0.344691 -0.341222 153 76 0
-0.158002 -0.496848 -0.007991 76 0 153
-0.400453 -0.496848 0.222574 76 0 153
0.186470 -0.184040 -0.341222 153 76 0
-0.700893 0.452775 -0.160758 76 0 153
0.347978 0.295051 0.313895 127 127 0
0.380234 0.439727 0.266321 0 0 255
0.350792 -0.140673 -0.355780 153 76 0
0.231317 -0.288664 0.315613 127 127 0
-0.531915 -0.074662 0.017240 127 127 0
0.093513 0.425555 0.313895 153 76 0
-0.488074 0.577252 -0.384897 255 0 0
-0.700893 -0.440137 -0.096585 76 0 153
-0.335360 0.345099 0.324941 153 76 0
0.677279 0.105370 -0.037566 153 0 76
0.401022 -0.264273 0.338765 127 127 0
0.249169 -0.496848 -0.205532 76 0 153
0.243863 -0.040762 0.315613 127 127 0
0.114949 -0.496848 0.088744 76 0 153
0.089788 -0.711085 0.192577 76 153 0
0.449579 -0.103778 -0.092641 127 127 0
-0.467158 0.439727 0.069412 0 0 255
-0.234359 -0.520863 0.192577 76 153 0
-0.606467 0.256711 -0.341222 153 76 0
-0.231465 -0.074662 -0.305010 127 127 0
0.333616 0.432447 -0.151470 0 0 255
0.677279 0.200197 -0.079422 153 0 76
0.679705 -0.400815 0.337929 127 127 0
0.532082 -0.512250 -0.341222 153 76 0
0.677279 0.389832 0.202315 153 0 76
0.434285 -0.117712 0.315613 127 127 0
0.638726 0.570750 -0.117050 0 0 255
0.677279 0.325986 -0.220957 153 0 76
0.677279 -0.279761 -0.082029 153 0 76
0.601553 0.612017 0.322218 153 76 0
0.275062 0.432447 0.023694 0 0 255
0.284054 -0.422541 0.340854 127 127 0
-0.451235 0.561945 0.313895 153 76 0
-0.700893 -0.636095 0.143602 153 76 0
-0.700893 -0.628413 0.050496 153 76 0
0.091578 -0.698318 -0.384897 76 0 153
0.428258 -0.103778 0.135815 127 127 0
-0.585242 -0.103778 0.208458 127 127 0
-0.461595 0.357978 0.284778 0 0 255
0.682909 -0.175058 0.313895 76 0 153
0.250504 -0.496848 -0.299001 76 0 153
-0.381180 -0.145604 -0.341222 153 76 0
-0.581842 -0.496848 0.130252 76 0 153
-0.640166 -0.496848 -0.207207 76 0 153
0.006194 -0.074662 0.147706 127 127 0
-0.667013 0.570750 0.049865 153 0 76
0.616954 -0.103778 -0.172830 127 127 0
0.349724 0.373431 -0.341222 153 76 0
0.657868 -0.350388 -0.270185 153 0 76
-0.148358 -0.403123 -0.341222 153 76 0
-0.560596 -0.103778 -0.043637 127 127 0
-0.075561 -0.109645 0.313895 255 0 0
-0.181921 -0.261099 0.338765 255 0 0
-0.300632 -0.074662 0.008746 127 127 0
-0.085992 -0.594347 -0.384897 76 0 153
-0.380863 0.567181 0.313895 204 51 127
-0.430774 0.576490 -0.384897 255 0 0
-0.034044 -0.074662 0.109951 127 127 0
-0.652366 0.272190 0.288171 153 0 76
0.096600 -0.186384 0.313895 127 127 0
-0.098136 0.259250 -0.355780 153 76 0
-0.681482 0.297867 -0.047680 76 0 153
-0.156770 -0.428287 0.343011 255 0 0
0.657868 -0.443786 -0.185408 153 0 76
0.161769 -0.496848 0.275473 76 0 153
-0.304776 -0.276142 -0.355780 153 76 0
-0.315823 0.482566 0.284778 153 76 0
-0.177892 -0.142553 -0.341222 153 76 0
0.362239 -0.189497 0.338765 127 127 0
0.634150 -0.599694 -0.384897 76 0 153
0.055733 -0.485698 0.313895 127 127 0
0.085477 0.388367 0.343011 153 76 0
-0.127657 -0.537464 0.315553 255 0 0
0.361023 0.559717 0.313895 153 76 0
0.297258 -0.501712 -0.384897 76 0 153
0.037340 0.611998 0.329418 153 76 0
-0.018764 0.555198 -0.341222 153 76 0
0.556634 0.529502 -0.209709 204 51 127
0.657868 -0.004913 -0.188230 153 0 76
0.137647 -0.237547 0.315613 127 127 0
0.628751 0.546542 0.303857 76 0 153
-0.084398 0.321875 0.343011 255 0 0
-0.700893 -0.437410 0.228662 76 0 153
-0.557932 -0.074662 -0.278082 127 127 0
-0.700893 0.099798 0.170731 76 0 153
-0.322247 0.607224 0.343011 153 76 0
0.580102 -0.385063 -0.355780 153 76 0
-0.060846 0.609222 0.342787 153 76 0
0.219735 0.603334 -0.355780 255 0 0
0.392575 -0.718933 0.192577 76 153 0
-0.396453 0.276950 -0.355780 153 76 0
-0.522894 -0.496848 -0.063685 76 0 153
-0.321500 -0.074662 -0.098547 127 127 0
-0.484515 -0.496848 0.149626 76 0 153
0.657868 0.614109 -0.178462 153 0 76
0.224164 0.567367 -0.384897 255 0 0
0.352816 0.475467 -0.200493 204 51 127
0.557615 -0.496848 0.210482 76 0 153
-0.545882 0.365049 0.313895 0 0 255
-0.385555 0.458055 -0.200493 204 51 127
0.646225 -0.496848 0.201106 76 0 153
-0.512115 -0.496848 0.189000 76 0 153
0.466205 0.108755 0.338765 127 127 0
-0.265103 -0.103778 0.215351 127 127 0
-0.375591 0.374124 -0.341222 153 76 0
-0.631123 -0.479088 -0.355780 153 76 0
-0.286720 0.007578 0.338765 255 0 0
-0.290485 0.439727 -0.016178 0 0 255
0.657868 0.074140 -0.175236 153 0 76
0.216056 -0.309114 -0.341222 153 76 0
0.198215 -0.621180 -0.384897 76 0 153
0.538466 -0.140592 0.315613 127 127 0
0.077438 0.509666 -0.341222 153 76 0
0.677279 -0.654594 -0.331079 153 0 76
0.545675 0.565996 -0.384897 255 0 0
0.119388 -0.646987 -0.384897 76 0 153
0.287672 -0.103778 0.093089 127 127 0
0.001995 0.591792 -0.355780 255 0 0
-0.192088 0.432447 -0.135358 0 0 255
0.563880 0.506783 0.315613 153 76 0
0.310530 -0.655360 -0.384897 76 0 153
-0.572742 0.432447 -0.001700 0 0 255
0.130025 -0.300080 -0.341222 153 76 0
-0.387392 0.523457 0.315613 153 76 0
0.515515 0.345099 0.336873 153 76 0
-0.432498 0.439727 -0.043843 0 0 255
0.657868 -0.342018 0.262101 153 0 76
0.432369 0.132286 0.315613 127 127 0
0.678690 -0.209105 0.341735 127 127 0
-0.632485 -0.074662 -0.154546 127 127 0
0.602226 -0.510636 0.343011 127 127 0
0.119689 0.439727 -0.111080 0 0 255
-0.555522 -0.103778 -0.311631 127 127 0
0.414460 0.013951 -0.355780 153 76 0
-0.502882 -0.074662 0.223797 127 127 0
-0.232291 -0.497180 0.343011 255 0 0
0.657868 0.025558 -0.150578 153 0 76
-0.489245 0.457271 -0.200493 204 51 127
-0.681482 -0.405841 0.050959 76 0 153
0.004725 -0.074662 -0.023593 127 127 0
0.307201 -0.496848 -0.005742 76 0 153
0.572945 0.485487 -0.144611 153 0 76
-0.495704 0.439727 0.153676 0 0 255
-0.700893 -0.367625 -0.344596 76 0 153
-0.376772 0.392499 0.313895 153 76 0
-0.002367 0.602094 0.284778 204 51 127
-0.641909 -0.496848 -0.046908 76 0 153
-0.025981 0.307340 -0.355780 153 76 0
0.015790 -0.077427 -0.355780 153 76 0
-0.655450 -0.496848 0.243122 76 0 153
0.583174 -0.702900 -0.384897 76 0 153
0.502875 0.529502 -0.209781 204 51 127
-0.681482 0.501594 0.235055 76 0 153
-0.681482 0.370702 -0.038451 76 0 153
0.563004 0.147649 0.315613 127 127 0
0.462332 0.254229 0.313895 127 127 0
-0.084768 -0.239395 -0.341222 153 76 0
0.644095 -0.045331 0.284778 76 0 153
0.397664 -0.316552 0.315613 127 127 0
0.366127 -0.053249 0.315613 127 127 0
0.377540 0.091332 0.315613 127 127 0
-0.477928 0.153833 -0.341222 153 76 0
0.083213 0.190349 0.313895 127 127 0
-0.700893 0.205048 0.178445 76 0 153
0.657868 -0.449639 -0.055714 153 0 76
-0.700893 -0.699439 0.126992 153 76 0
-0.343920 0.587023 -0.384897 255 0 0
0.384073 -0.074662 0.201356 127 127 0
0.677279 0.514573 -0.038162 153 0 76
0.001187 0.034698 0.343011 127 127 0
0.505056 0.529742 0.343011 153 76 0
-0.029145 0.439727 0.059450 0 0 255
-0.504620 -0.103778 -0.325936 127 127 0
-0.542038 0.517665 0.284778 153 76 0
0.132212 -0.240310 -0.355780 153 76 0
-0.700893 0.114743 -0.383253 76 0 153
-0.575326 -0.262592 0.315613 255 0 0
0.572212 0.570750 -0.165571 0 0 255
-0.365460 -0.074662 0.149766 127 127 0
0.426204 0.490570 -0.355780 153 76 0
0.545142 0.515161 -0.384897 255 0 0
-0.445792 -0.487143 0.297549 204 51 127
-0.681482 0.382291 -0.193796 76 0 153
0.602062 0.425712 0.024233 153 0 76
-0.664139 0.442967 -0.341222 153 76 0
-0.109530 0.528994 -0.384897 255 0 0
-0.499093 0.578801 0.313895 204 51 127
-0.217448 0.559289 0.313895 153 76 0
0.594239 -0.074662 0.160937 127 127 0
-0.339563 -0.400417 0.338765 255 0 0
0.001346 -0.056526 0.343011 127 127 0
0.418121 -0.103778 -0.183149 127 127 0
0.380550 -0.496848 -0.142683 76 0 153
0.205745 0.299052 0.343011 127 127 0
0.421956 0.569198 0.284778 204 51 127
0.583917 0.020094 0.313895 127 127 0
-0.085369 -0.074662 -0.111580 127 127 0
-0.468379 0.262997 0.343011 255 0 0
0.677279 0.067593 0.167006 153 0 76
0.072569 0.606558 -0.384897 255 0 0
0.636466 0.034736 -0.341222 153 76 0
0.232947 0.588104 0.313895 153 76 0
0.439980 -0.496848 0.046355 76 0 153
-0.114907 0.619277 0.308176 204 51 127
-0.182548 0.439727 0.005346 0 0 255
-0.093654 -0.327010 -0.341222 153 76 0
0.318353 -0.074662 0.270688 127 127 0
-0.568849 -0.074662 0.124330 127 127 0
-0.566843 0.276689 0.343011 255 0 0
-0.098651 0.585488 -0.384897 255 0 0
-0.369799 -0.496848 0.189722 76 0 153
0.677279 -0.242063 0.062355 153 0 76
-0.533815 0.266902 -0.355780 153 76 0
0.315082 0.021067 -0.341222 153 76 0
0.377624 -0.230162 -0.355780 153 76 0
0.489425 -0.530580 -0.384897 76 0 153
0.174300 0.432447 0.028146 0 0 255
0.657868 0.318908 -0.298969 153 0 76
0.628751 -0.303274 0.291008 76 0 153
-0.673831 0.581768 -0.355780 255 0 0
0.238154 -0.074662 -0.130304 127 127 0
-0.385587 -0.459460 0.313895 255 0 0
0.257794 0.451692 -0.200493 204 51 127
-0.011766 0.503595 -0.341222 153 76 0
-0.287994 -0.513207 -0.355780 153 76 0
0.620207 0.008573 0.343011 127 127 0
-0.457109 0.432447 -0.185162 0 0 255
0.402240 0.432447 0.107312 0 0 255
0.677279 0.161346 0.239167 153 0 76
-0.437612 -0.388166 -0.341222 153 76 0
-0.120588 -0.103778 0.251813 127 127 0
-0.382356 -0.103778 -0.081965 127 127 0
0.602062 0.470003 -0.201536 153 0 76
0.677279 0.287078 0.055141 153 0 76
0.473640 -0.305717 0.338765 127 127 0
0.079773 -0.668847 0.192577 76 153 0
-0.681482 0.292047 -0.376508 76 0 153
-0.625032 -0.425385 0.313895 255 0 0
-0.023019 0.421209 -0.229610 204 51 127
0.047467 -0.571829 -0.384897 76 0 153
0.202184 -0.074662 -0.172793 127 127 0
-0.635525 -0.468863 0.313895 255 0 0
0.586564 0.100554 -0.341222 153 76 0
0.657868 0.184279 0.089398 153 0 76
-0.337797 0.279643 0.313895 255 0 0
0.422208 -0.074662 -0.046157 127 127 0
-0.681482 0.286524 -0.144970 76 0 153
0.528404 0.217689 0.313895 127 127 0
-0.303842 0.490324 -0.200493 204 51 127
0.514906 -0.103778 -0.075461 127 127 0
0.104170 -0.074662 -0.338335 127 127 0
-0.700893 -0.700448 0.177230 153 76 0
-0.569807 -0.541073 0.284778 204 51 127
-0.700893 0.576797 0.177974 76 0 153
-0.105456 0.074664 0.343011 255 0 0
-0.574625 0.332887 -0.355780 153 76 0
0.034158 -0.023622 0.343011 127 127 0
-0.700893 -0.276940 0.254716 76 0 153
-0.109879 0.056164 -0.355780 153 76 0
0.507930 0.573812 0.313895 204 51 127
-0.299033 -0.108667 -0.341222 153 76 0
-0.123770 0.550896 0.313895 153 76 0
0.670365 0.161949 0.284778 76 0 153
-0.107182 -0.472815 -0.341222 153 76 0
0.534509 0.439727 0.247309 0 0 255
0.047294 -0.105532 0.343011 127 127 0
-0.178875 0.194877 -0.341222 153 76 0
-0.681482 -0.390157 -0.015097 76 0 153
-0.247661 0.449190 0.333818 153 76 0
0.657868 -0.528556 0.276507 153 0 76
0.060360 -0.003330 -0.341222 153 76 0
0.054190 -0.349540 0.313895 127 127 0
0.389421 -0.448387 0.313895 127 127 0
0.657868 0.343235 -0.081574 153 0 76
0.162781 -0.496848 0.150874 76 0 153
0.657868 -0.311309 0.150072 153 0 76
0.529893 -0.103778 0.261352 127 127 0
0.093258 0.503594 0.284778 153 76 0
0.328701 0.439727 0.154766 0 0 255
0.598463 -0.175319 0.343011 127 127 0
-0.146186 0.547656 -0.341222 153 76 0
-0.323653 -0.570494 0.192577 76 153 0
-0.525429 -0.074662 0.137033 127 127 0
0.061937 -0.496848 -0.197131 76 0 153
-0.349611 0.427989 -0.229610 204 51 127
0.347792 -0.370111 -0.355780 153 76 0
0.165696 0.194259 -0.355780 153 76 0
-0.399567 -0.630903 0.192577 76 153 0
0.651816 -0.103778 0.020155 127 127 0
0.657868 0.340947 0.205977 153 0 76
0.436132 -0.621891 -0.384897 76 0 153
-0.390283 -0.074662 0.028254 127 127 0
0.417291 0.401963 0.313895 153 76 0
-0.681482 0.520236 -0.313978 76 0 153
0.685357 0.387644 0.284778 76 0 153
-0.629490 0.581906 0.343011 153 76 0
0.312193 0.214331 -0.341222 153 76 0
-0.234703 0.206687 -0.355780 153 76 0
-0.510664 0.327044 0.342980 255 0 0
-0.022697 -0.362937 0.343011 255 0 0
-0.302778 0.439727 -0.083637 0 0 255
-0.681482 -0.411330 -0.318310 76 0 153
-0.431458 0.529502 0.294213 153 76 0
0.677279 -0.446267 0.229336 153 0 76
0.435090 0.438075 -0.341222 153 76 0
-0.700893 0.333940 -0.174221 76 0 153
-0.361051 0.468606 -0.341222 153 76 0
-0.422390 0.447084 -0.229610 204 51 127
-0.707364 0.200785 0.284778 153 0 76
0.117959 0.444398 -0.341222 153 76 0
-0.696165 -0.538096 0.336750 255 0 0
-0.218039 0.432447 -0.091568 0 0 255
0.261182 -0.496848 0.058847 76 0 153
0.677279 0.572405 -0.213469 153 0 76
0.677279 0.282362 -0.136542 153 0 76
0.171797 0.416754 0.313895 153 76 0
0.625851 0.443289 0.343011 153 76 0
-0.272403 -0.546499 -0.384897 76 0 153
-0.437031 -0.103778 0.072161 127 127 0
-0.347824 -0.561198 -0.384897 76 0 153
0.562439 -0.496848 -0.172841 76 0 153
-0.700893 -0.212368 0.138568 76 0 153
0.145536 -0.496848 -0.219733 76 0 153
-0.608323 0.175798 -0.355780 153 76 0
0.567009 -0.096287 0.343011 127 127 0
-0.703319 -0.141672 0.339199 255 0 0
0.484954 0.408781 0.313895 153 76 0
-0.312197 0.541749 -0.384897 255 0 0
0.239403 0.177865 0.338765 127 127 0
-0.531465 -0.311267 0.315613 255 0 0
-0.228146 0.502812 -0.358467 255 0 0
-0.700893 -0.035132 -0.338453 76 0 153
-0.436150 -0.074662 -0.007074 127 127 0
-0.121220 -0.085562 -0.341222 153 76 0
0.497572 0.363059 0.284778 0 0 255
0.343630 -0.664884 0.192577 76 153 0
-0.681482 -0.282433 -0.384820 76 0 153
0.657868 0.267355 0.002116 153 0 76
0.432993 0.048895 0.315613 127 127 0
0.102660 -0.010057 0.343011 127 127 0
0.509387 -0.247428 0.315613 127 127 0
0.054685 -0.496848 -0.329829 76 0 153
0.572945 0.437542 -0.053843 153 0 76
-0.429674 0.619277 0.303420 204 51 127
0.045841 -0.074662 -0.244213 127 127 0
-0.253842 -0.341782 -0.355780 153 76 0
0.604087 -0.590999 0.192577 76 153 0
0.240034 0.432447 0.243599 0 0 255
-0.686089 0.374931 -0.384897 76 0 153
-0.586590 0.529437 0.284778 153 76 0
0.366545 -0.538096 0.336027 127 127 0
-0.195841 0.119883 -0.355780 153 76 0
-0.489251 -0.665672 -0.384897 76 0 153
-0.516721 0.439727 -0.104838 0 0 255
0.225439 0.496761 -0.229610 204 51 127
-0.583370 0.453979 0.284778 153 76 0
-0.591047 -0.078293 0.284778 127 127 0
-0.591749 -0.103778 -0.139380 127 127 0
-0.597198 0.380074 -0.341222 153 76 0
0.420718 -0.200659 0.315613 127 127 0
-0.683694 0.357819 0.313895 153 0 76
-0.205118 -0.074662 0.124205 127 127 0
-0.004598 -0.189117 -0.355780 153 76 0
0.377306 0.432447 -0.004498 0 0 255
-0.120697 -0.667798 -0.384897 76 0 153
-0.573416 -0.531633 -0.384897 76 0 153
-0.551025 -0.496848 -0.332116 76 0 153
-0.442874 0.413037 0.297165 153 76 0
0.505599 -0.352340 -0.341222 153 76 0
-0.700893 0.035847 0.008768 76 0 153
0.677279 -0.675179 -0.122560 153 0 76
0.113910 -0.496848 -0.096054 76 0 153
-0.614470 -0.025500 -0.341222 153 76 0
0.314149 0.512526 -0.384897 255 0 0
0.177467 -0.496848 -0.033406 76 0 153
0.508379 -0.103778 0.170141 127 127 0
-0.523057 -0.012890 -0.341222 153 76 0
-0.620440 0.503918 -0.384897 255 0 0
0.064490 -0.496848 0.001296 76 0 153
0.299937 0.249586 0.313895 127 127 0
-0.596560 0.476950 0.193238 76 0 153
0.058983 -0.234205 0.343011 127 127 0
-0.681482 -0.299171 -0.100774 76 0 153
-0.441272 0.404887 0.343011 153 76 0
-0.705281 0.505963 0.284778 153 0 76
0.629338 -0.074662 -0.144784 127 127 0
-0.030098 0.439727 -0.039030 0 0 255
-0.560672 0.437409 0.333818 153 76 0
-0.695663 0.290340 0.284778 153 0 76
0.266208 -0.346284 0.315613 127 127 0
0.474621 0.303035 -0.341222 153 76 0
-0.266032 -0.618075 -0.384897 76 0 153
-0.374970 -0.270734 0.315613 255 0 0
0.176110 -0.074662 0.011945 127 127 0
-0.376330 -0.488584 0.343011 255 0 0
-0.625676 0.486637 -0.095016 76 0 153
-0.300441 -0.496848 -0.232106 76 0 153
0.014430 0.419865 0.284778 153 76 0
-0.335439 -0.074662 0.239597 127 127 0
0.602062 0.485604 0.193339 153 0 76
-0.140247 0.585070 0.343011 153 76 0
0.392826 0.163300 -0.341222 153 76 0
-0.291307 -0.192682 -0.341222 153 76 0
-0.405084 -0.717895 0.192577 76 153 0
0.032498 -0.074662 0.108297 127 127 0
0.599106 0.567752 -0.355780 153 76 0
0.085112 0.252030 -0.341222 153 76 0
-0.488960 -0.103778 -0.253831 127 127 0
-0.214345 0.434754 -0.355780 153 76 0
0.450500 0.570750 -0.341232 153 76 0
-0.700893 -0.241118 0.102240 76 0 153
-0.009866 -0.520457 0.335132 127 127 0
0.174846 -0.536676 0.284778 204 51 127
-0.208993 -0.199898 0.338765 255 0 0
0.677279 0.449550 0.028727 153 0 76
0.472678 0.137245 -0.341222 153 76 0
0.030856 0.078753 0.343011 127 127 0
-0.534123 0.320811 -0.355780 153 76 0
0.117256 0.439727 -0.029962 0 0 255
0.057873 -0.160484 0.313895 127 127 0
-0.153364 -0.232065 -0.355780 153 76 0
-0.180002 0.366936 0.296935 0 0 255
0.602062 0.430719 0.090753 153 0 76
-0.181357 0.403957 0.343011 153 76 0
-0.587594 0.439727 0.145478 0 0 255
0.245902 0.432447 0.141172 0 0 255
0.326090 -0.074662 -0.120252 127 127 0
0.657868 0.411881 -0.302020 153 0 76
0.537895 0.250625 0.343011 127 127 0
-0.651084 0.590161 0.000620 153 0 76
-0.164965 0.432447 0.165991 0 0 255
-0.623520 0.180238 0.343011 255 0 0
-0.642200 0.570750 -0.181493 153 0 76
-0.683463 0.619277 0.146630 76 0 153
0.166456 0.120820 -0.341222 153 76 0
0.677279 0.110557 0.171859 153 0 76
0.339761 -0.074662 -0.180924 127 127 0
-0.621951 0.590161 -0.083727 153 0 76
0.187226 -0.715564 0.192577 76 153 0
-0.245060 -0.070165 0.338765 255 0 0
0.345838 -0.496848 -0.227541 76 0 153
-0.385893 -0.103778 -0.154802 127 127 0
0.531546 -0.067109 -0.355780 153 76 0
0.677279 -0.282262 0.216968 153 0 76
-0.596560 0.462809 0.020514 76 0 153
0.336324 -0.074662 0.198237 127 127 0
-0.681482 -0.306128 -0.183119 76 0 153
0.657868 -0.209917 -0.001643 153 0 76
-0.488686 0.023288 0.315613 255 0 0
-0.123398 0.489443 -0.229610 204 51 127
0.657868 0.190929 -0.242433 153 0 76
-0.531478 -0.491995 -0.384836 76 0 153
-0.625676 0.414453 -0.117423 76 0 153
-0.268379 0.439727 0.042887 0 0 255
-0.681482 0.504237 0.027522 76 0 153
0.580801 -0.360552 0.313895 127 127 0
0.635789 -0.496848 -0.320789 76 0 153
0.392107 -0.071838 -0.355780 153 76 0
-0.337937 0.437786 0.315613 153 76 0
-0.165362 0.449445 0.333818 153 76 0
0.657868 0.062589 -0.032706 153 0 76
-0.538307 -0.347908 0.338765 255 0 0
0.657868 0.401343 0.091600 153 0 76
-0.406798 -0.074662 0.195310 127 127 0
-0.304438 -0.296412 0.338765 255 0 0
0.572945 0.489750 0.262767 153 0 76
-0.681482 -0.505368 0.140702 76 0 153
0.488202 -0.100701 0.315613 127 127 0
0.385798 -0.496848 0.270759 76 0 153
0.468415 -0.295023 -0.341222 153 76 0
0.581495 0.365707 0.284778 0 0 255
-0.518409 -0.066915 0.338765 255 0 0
0.316857 0.301598 -0.341222 153 76 0
0.034357 0.487561 0.315613 153 76 0
-0.681482 0.614858 -0.107257 76 0 153
-0.481593 0.529430 -0.341222 153 76 0
-0.491371 -0.264655 0.338765 255 0 0
-0.449880 -0.478663 -0.341222 153 76 0
-0.597565 0.102052 -0.355780 153 76 0
0.445011 -0.048423 -0.355780 153 76 0
-0.700893 -0.341931 0.069410 76 0 153
0.164099 0.047124 -0.355780 153 76 0
-0.458485 -0.056426 -0.341222 153 76 0
0.111397 0.488470 0.333818 153 76 0
-0.681482 0.330743 0.161941 76 0 153
0.535435 -0.496848 -0.258601 76 0 153
-0.681482 0.111639 -0.342304 76 0 153
0.677279 0.341388 -0.377749 153 0 76
-0.128812 -0.496848 0.178978 76 0 153
-0.191570 -0.496848 0.268833 76 0 153
-0.507733 0.425212 -0.229610 204 51 127
0.102073 -0.366222 0.313895 127 127 0
-0.335296 -0.545375 0.295616 204 51 127
-0.304421 0.571554 0.284778 204 51 127
-0.614764 -0.516192 0.340243 255 0 0
-0.680025 0.468112 0.284778 153 0 76
-0.150001 0.294252 0.313895 255 0 0
0.095209 0.485353 0.372605 76 0 153
0.651457 -0.496848 -0.262697 76 0 153
0.114003 -0.074662 0.033397 127 127 0
-0.692057 0.166919 0.343011 255 0 0
-0.110639 -0.594310 0.192577 76 153 0
-0.470336 -0.313356 -0.355780 153 76 0
-0.252857 -0.103778 -0.034213 127 127 0
-0.700893 0.490771 -0.177552 76 0 153
0.452363 -0.520796 0.337365 127 127 0
0.657868 0.485846 0.023161 153 0 76
0.657868 -0.120235 -0.210988 153 0 76
-0.428311 -0.074662 -0.197276 127 127 0
-0.251805 -0.074662 0.042434 127 127 0
0.122058 0.060247 0.315613 127 127 0
0.657868 0.564758 0.152140 153 0 76
-0.477223 0.204902 -0.355780 153 76 0
-0.013799 -0.103778 0.188567 127 127 0
0.376357 -0.074662 0.042556 127 127 0
0.302226 0.327256 0.284778 0 0 255
-0.604642 0.529502 0.162657 76 0 153
-0.121662 -0.074662 -0.002293 127 127 0
0.014148 -0.317772 -0.341222 153 76 0
-0.497873 0.321802 0.284778 0 0 255
0.136946 0.432447 0.186484 0 0 255
-0.646302 0.402982 0.313895 153 76 0
-0.700893 0.089540 0.229623 76 0 153
0.649937 0.523104 0.343011 153 76 0
0.657868 -0.367016 -0.027508 153 0 76
0.537337 -0.074662 -0.140650 127 127 0
-0.100023 -0.074662 -0.038246 127 127 0
-0.393771 -0.496848 0.044494 76 0 153
0.657868 -0.365857 0.219581 153 0 76
-0.257066 -0.400586 0.338765 255 0 0
0.153832 -0.429125 0.343011 127 127 0
0.659686 0.619277 -0.002005 153 0 76
-0.058538 0.242920 0.343011 255 0 0
0.069505 0.165662 -0.341222 153 76 0
0.546324 0.590161 0.120883 0 0 255
-0.481257 -0.074662 -0.214704 127 127 0
0.158752 -0.496848 0.058895 76 0 153
0.319774 -0.334745 0.315613 127 127 0
0.304278 0.439727 0.191245 0 0 255
-0.553932 -0.496848 0.194009 76 0 153
0.503490 0.270314 -0.355780 153 76 0
0.599603 0.570750 -0.244400 0 0 255
0.162478 0.503063 0.315613 153 76 0
-0.310405 0.578296 -0.355780 255 0 0
0.677279 -0.221389 -0.079047 153 0 76
0.677279 0.086712 -0.213767 153 0 76
-0.169211 -0.074662 -0.011567 127 127 0
0.417781 -0.501955 -0.384897 76 0 153
-0.286534 0.439727 -0.166158 0 0 255
0.465619 -0.406789 -0.355780 153 76 0
0.663236 0.619277 -0.079609 153 0 76
0.372468 0.429366 -0.341222 153 76 0
-0.092689 0.371337 0.313895 153 76 0
-0.313617 0.150262 0.315613 255 0 0
-0.522708 -0.234590 -0.355780 153 76 0
0.239799 0.063034 0.315613 127 127 0
-0.150668 -0.103778 -0.305161 127 127 0
0.534076 -0.496848 0.067481 76 0 153
0.572054 0.300132 0.313895 127 127 0
0.563277 -0.647917 0.192577 76 153 0
-0.671618 0.245764 0.313895 255 0 0
0.650825 0.400538 -0.341222 153 76 0
