ply
format ascii 1.0
element vertex 1272
property float x
property float y
property float z
property uchar red
property uchar green
property uchar blue
end_header
0.485327 -0.693374 0.192577 76 153 0
-0.049213 -0.212915 0.343011 255 0 0
-0.654903 -0.237825 0.313895 255 0 0
0.106581 0.080594 -0.341222 153 76 0
-0.700893 0.105728 0.044501 76 0 153
-0.454162 -0.417795 -0.341222 153 76 0
-0.090601 -0.093934 0.343011 255 0 0
-0.231704 -0.373602 -0.341222 153 76 0
0.138973 -0.560318 -0.384897 76 0 153
0.265249 -0.074662 -0.129242 127 127 0
-0.370110 0.439727 0.159278 0 0 255
-0.479082 0.308948 0.313895 0 0 255
-0.625676 0.414507 0.234563 76 0 153
0.148437 0.062892 0.338765 127 127 0
0.224778 -0.496848 0.158758 76 0 153
-0.316720 0.008230 0.315613 255 0 0
-0.381671 -0.118388 0.338765 255 0 0
-0.300958 -0.577582 -0.384897 76 0 153
0.117016 -0.493463 -0.384897 76 0 153
0.649041 -0.496848 -0.066918 153 0 76
-0.297220 0.356407 -0.355780 153 76 0
0.575922 0.590161 0.150274 0 0 255
-0.124000 0.339841 0.284778 0 0 255
-0.621000 0.174291 -0.355780 153 76 0
0.231483 -0.270842 0.315613 127 127 0
0.466044 0.502812 -0.361030 255 0 0
-0.198902 -0.103778 0.252384 127 127 0
0.569425 0.590161 0.089277 0 0 255
0.677279 -0.139860 -0.170910 153 0 76
0.102004 0.432447 -0.086290 0 0 255
0.657868 0.184682 -0.074284 153 0 76
-0.676058 0.590161 0.017800 153 0 76
0.070130 -0.074662 -0.250006 127 127 0
0.479583 0.439727 0.086798 0 0 255
-0.159359 -0.496848 -0.211192 76 0 153
-0.499501 -0.338795 0.338765 255 0 0
-0.619435 0.590161 -0.169477 153 0 76
-0.700893 0.217526 -0.300348 76 0 153
0.363952 -0.382515 0.315613 127 127 0
0.255526 -0.534819 0.342921 127 127 0
0.602062 0.493853 0.266196 153 0 76
0.127458 -0.458037 0.343011 127 127 0
-0.151198 0.330540 0.337419 153 76 0
-0.193976 -0.103778 -0.276306 127 127 0
0.128752 -0.103778 0.139130 127 127 0
0.268906 0.420295 -0.229610 204 51 127
-0.431438 0.432447 -0.139528 0 0 255
0.341495 -0.496848 0.095748 76 0 153
-0.265289 -0.103778 -0.057379 127 127 0
-0.526514 -0.103778 0.021361 127 127 0
0.369206 -0.121650 0.315613 127 127 0
-0.619297 0.593179 0.337365 153 76 0
0.633065 0.570750 0.249079 0 0 255
-0.681482 -0.167755 -0.358325 76 0 153
0.383860 -0.496848 -0.250226 76 0 153
0.501376 0.432447 -0.059810 0 0 255
-0.318359 -0.103778 -0.261549 127 127 0
0.677279 0.127879 -0.327443 153 0 76
-0.623316 0.590161 0.242144 153 0 76
-0.681482 -0.378393 0.060551 76 0 153
0.250923 0.439727 -0.021892 0 0 255
0.102790 -0.074662 -0.067410 127 127 0
0.440466 -0.360310 -0.355780 153 76 0
0.075463 -0.496848 0.035413 76 0 153
-0.674072 -0.636977 -0.384897 153 76 0
-0.343189 -0.496848 0.217877 76 0 153
-0.302343 -0.103778 0.011525 127 127 0
-0.700893 0.516879 -0.246373 76 0 153
-0.605420 0.529502 -0.010490 76 0 153
-0.307924 0.405293 0.343011 153 76 0
-0.636484 -0.580632 -0.384897 76 0 153
-0.620469 -0.435565 0.313895 255 0 0
0.232812 0.334838 -0.355780 153 76 0
-0.151616 0.473980 -0.341222 153 76 0
0.586444 0.590161 -0.312050 0 0 255
-0.081034 0.428742 0.341913 153 76 0
0.030383 -0.103778 -0.194851 127 127 0
-0.700893 0.437241 0.008724 76 0 153
-0.700893 0.094828 -0.278385 76 0 153
-0.073897 0.522895 -0.384897 255 0 0
-0.681482 -0.431308 -0.303632 76 0 153
-0.681482 0.313782 -0.084833 76 0 153
-0.046381 -0.103778 -0.065766 127 127 0
-0.028042 0.439727 0.215345 0 0 255
-0.371182 -0.166588 -0.355780 153 76 0
-0.201535 0.413037 -0.203784 204 51 127
-0.191471 -0.502239 0.343011 255 0 0
-0.700893 -0.364578 -0.007740 76 0 153
-0.681482 0.557067 -0.064070 76 0 153
0.344597 -0.538096 0.337934 127 127 0
0.657868 0.242545 -0.200007 153 0 76
0.677279 -0.670886 0.125338 153 0 76
0.153950 0.417265 0.284778 153 76 0
0.203454 0.460900 0.284778 153 76 0
-0.700893 -0.166815 0.164294 76 0 153
0.655623 0.487229 0.342687 153 76 0
-0.694795 0.385746 0.284778 153 0 76
-0.588186 0.450782 -0.200493 204 51 127
0.377769 0.450294 0.313895 153 76 0
0.543329 0.590161 -0.079909 0 0 255
0.055182 -0.125573 -0.341222 153 76 0
-0.564360 0.571578 -0.355780 153 76 0
0.040192 0.009968 0.313895 127 127 0
0.592869 -0.496848 0.098786 76 0 153
0.567216 0.463146 0.333819 153 76 0
0.657868 -0.404637 0.106741 153 0 76
-0.279652 -0.074662 -0.252067 127 127 0
-0.287874 -0.097605 0.315613 255 0 0
0.419861 -0.145758 0.315613 127 127 0
0.564773 0.529502 -0.201296 204 51 127
-0.700893 -0.132762 0.109292 76 0 153
-0.534414 -0.103778 -0.136869 127 127 0
0.552220 -0.612039 0.192577 76 153 0
-0.365901 0.617654 -0.355780 255 0 0
-0.625676 0.500222 0.178963 76 0 153
-0.158339 -0.334044 -0.341222 153 76 0
-0.042358 0.155322 -0.341222 153 76 0
-0.283487 -0.490353 -0.341222 153 76 0
0.535289 0.528279 0.341839 153 76 0
-0.681482 -0.093615 -0.363291 153 76 0
0.251719 0.117616 0.338765 127 127 0
-0.407452 -0.444821 -0.341222 153 76 0
-0.012860 0.330826 0.313895 127 127 0
-0.201582 0.439727 0.221369 0 0 255
-0.135973 -0.103778 0.004740 127 127 0
0.609737 0.577404 0.284778 76 0 153
0.538904 0.050693 0.338765 127 127 0
-0.164096 -0.103778 0.144374 127 127 0
0.651547 -0.182689 0.313895 127 127 0
0.677279 -0.403270 -0.110367 153 0 76
-0.681482 -0.246760 0.070272 76 0 153
-0.596560 0.481154 -0.100699 76 0 153
0.265567 0.298914 0.379191 127 0 127
-0.306106 0.439727 0.178050 0 0 255
0.569950 -0.037088 -0.341222 153 76 0
0.334448 -0.516026 -0.355780 153 76 0
0.209748 -0.134126 0.338765 127 127 0
0.219702 0.497379 0.315613 153 76 0
-0.386958 0.589936 0.313895 153 76 0
-0.681482 0.349068 0.063308 76 0 153
-0.534754 -0.103778 -0.194226 127 127 0
-0.681482 -0.216823 -0.306097 76 0 153
0.677279 -0.630690 -0.153058 153 0 76
0.148657 -0.289934 -0.355780 153 76 0
-0.194515 0.256227 0.313895 255 0 0
-0.471363 -0.130571 0.338765 255 0 0
-0.216999 0.141114 0.315613 255 0 0
-0.452903 -0.211723 0.315613 255 0 0
0.351142 -0.496848 0.037642 76 0 153
0.131206 -0.442950 -0.355780 153 76 0
-0.281669 -0.386335 -0.355780 153 76 0
0.061857 0.389890 0.343011 153 76 0
0.322541 0.364920 -0.341222 153 76 0
0.570206 0.590161 0.005725 0 0 255
-0.681482 0.107250 -0.294875 76 0 153
-0.700893 -0.011777 -0.027254 76 0 153
-0.186579 -0.462127 0.313895 255 0 0
0.500505 0.439727 -0.018375 0 0 255
-0.425314 0.427979 0.342676 153 76 0
0.290567 -0.074662 -0.022196 127 127 0
-0.151223 0.440181 0.313895 153 76 0
0.604111 0.590161 -0.037119 0 0 255
0.023687 -0.180872 0.343011 127 127 0
-0.147192 -0.661705 0.192577 76 153 0
-0.323890 0.267710 -0.341222 153 76 0
-0.700893 0.216567 0.266143 76 0 153
0.337637 -0.719208 -0.384897 76 0 153
0.453045 -0.575693 0.192577 76 153 0
0.657868 0.244755 0.148866 153 0 76
0.347448 0.193258 -0.341222 153 76 0
-0.700893 -0.017141 -0.114382 76 0 153
0.643399 -0.164510 -0.341222 153 76 0
-0.517666 0.010605 -0.341222 153 76 0
0.591901 0.007323 0.313895 127 127 0
-0.044552 -0.425366 -0.341222 153 76 0
0.168289 -0.074662 -0.073106 127 127 0
0.510737 -0.428025 -0.341222 153 76 0
-0.700893 -0.370762 0.040415 76 0 153
0.454186 -0.103778 -0.093245 127 127 0
0.591495 0.413037 0.274507 153 0 76
-0.118006 -0.515217 0.341921 255 0 0
-0.681482 -0.273880 0.163568 76 0 153
-0.520283 0.002025 0.315613 255 0 0
0.580806 -0.074662 0.228751 127 127 0
0.677279 -0.207468 -0.220628 153 0 76
0.440677 0.165586 0.315613 127 127 0
-0.598458 -0.496848 -0.068084 76 0 153
0.335570 0.413037 -0.219671 204 51 127
0.265607 -0.071068 -0.341222 127 127 0
-0.116168 -0.668609 -0.384897 76 0 153
0.376478 0.550887 0.313895 153 76 0
0.629056 -0.439276 0.284778 76 0 153
-0.209138 0.528564 -0.200493 204 51 127
-0.484217 0.376519 0.313895 0 0 255
-0.340740 -0.103778 -0.329120 153 76 0
-0.453094 -0.285179 0.338765 255 0 0
-0.648764 0.256042 -0.341222 153 76 0
0.017355 0.556289 -0.341222 153 76 0
0.657868 -0.167880 -0.293856 153 0 76
0.677279 0.418682 -0.132750 153 0 76
-0.681482 0.027090 -0.362310 153 76 0
-0.186634 0.582741 0.313895 153 76 0
0.076990 -0.491995 -0.367691 76 0 153
0.518594 0.167859 0.338765 127 127 0
-0.279172 0.543249 0.343011 153 76 0
0.530270 0.617510 -0.355780 255 0 0
-0.700893 0.226447 -0.200543 76 0 153
0.677279 -0.517566 0.254278 153 0 76
-0.700893 0.071243 -0.111423 76 0 153
0.143839 0.570750 -0.346143 153 76 0
-0.596560 0.521249 0.079621 76 0 153
-0.283398 0.224353 -0.355780 153 76 0
-0.160774 -0.178311 -0.341222 153 76 0
0.470867 -0.604894 0.192577 76 153 0
-0.351928 0.184404 -0.341222 153 76 0
-0.619135 0.138330 -0.355780 153 76 0
-0.209895 -0.102118 0.338765 255 0 0
-0.700893 0.068778 0.101763 76 0 153
0.002123 0.293358 0.343011 127 127 0
0.583101 0.399146 0.343011 153 76 0
0.507651 -0.496848 -0.066075 76 0 153
0.657868 -0.051148 0.258008 153 0 76
-0.273219 -0.103778 -0.328248 153 76 0
-0.681482 -0.306376 -0.384859 76 0 153
0.118805 -0.094106 0.284778 127 127 0
0.400392 0.529502 -0.206844 204 51 127
-0.491777 0.463475 -0.200493 204 51 127
-0.585523 0.323893 0.284778 0 0 255
-0.679733 0.177103 0.342554 255 0 0
0.266329 -0.496848 0.125414 76 0 153
0.677279 0.592520 0.135797 153 0 76
0.535848 -0.074662 0.262573 127 127 0
0.657868 -0.413649 -0.320546 153 0 76
-0.539827 0.125583 0.315613 255 0 0
-0.628703 -0.471581 0.313895 255 0 0
-0.160597 0.432447 0.182197 0 0 255
0.501215 0.413037 -0.207035 204 51 127
-0.700893 -0.523135 -0.113799 76 0 153
0.677279 -0.420704 -0.086982 153 0 76
-0.352962 -0.513608 0.342796 255 0 0
0.410710 -0.103778 -0.109942 127 127 0
0.264151 0.193500 -0.355780 153 76 0
0.602062 0.521652 -0.090926 153 0 76
-0.681482 -0.430690 -0.213917 76 0 153
0.583015 -0.103778 -0.216183 127 127 0
0.677279 0.596129 -0.338346 153 0 76
-0.640601 0.538307 -0.355780 153 76 0
-0.700893 -0.452342 -0.310556 76 0 153
-0.614066 -0.496848 0.033099 76 0 153
-0.212115 -0.315679 0.338765 255 0 0
-0.700893 0.194928 -0.360686 76 0 153
-0.258505 -0.018718 -0.355780 153 76 0
-0.507673 -0.691954 -0.384897 76 0 153
-0.054332 -0.491995 -0.360709 153 76 0
-0.633376 -0.674546 -0.384897 76 0 153
0.470497 -0.103778 0.142779 127 127 0
0.017531 0.502812 -0.372415 255 0 0
-0.617233 0.518631 0.333819 153 76 0
0.036739 -0.103778 0.243818 127 127 0
0.521514 0.397992 -0.355780 153 76 0
0.366404 -0.186083 -0.341222 153 76 0
-0.700893 -0.013734 -0.342820 76 0 153
-0.123145 0.432447 -0.102599 0 0 255
0.609260 0.378822 -0.341222 153 76 0
0.602054 -0.264803 0.343011 127 127 0
-0.228139 -0.466532 -0.355780 153 76 0
0.403075 -0.156732 0.338765 127 127 0
-0.014959 -0.496848 -0.178563 76 0 153
-0.339212 -0.496848 -0.076356 76 0 153
0.169670 -0.511090 0.284778 76 0 153
-0.214270 0.428547 0.313895 153 76 0
0.096514 -0.272028 0.313895 127 127 0
0.574346 0.413037 0.055765 153 0 76
-0.297549 0.589370 -0.384897 255 0 0
-0.651666 -0.146489 0.343011 255 0 0
0.343920 -0.518232 0.192577 76 153 0
0.437899 0.532628 0.313895 153 76 0
-0.510510 -0.103778 -0.303656 127 127 0
-0.269578 -0.513847 0.284778 204 51 127
-0.271472 0.466082 0.333818 153 76 0
-0.681482 -0.167768 -0.297927 76 0 153
-0.159113 0.415772 -0.355780 153 76 0
-0.169466 0.387465 0.313895 153 76 0
-0.456695 -0.595639 0.192577 76 153 0
0.020013 -0.031667 -0.341222 153 76 0
0.397584 -0.496848 -0.027985 76 0 153
0.153115 -0.366826 0.338765 127 127 0
-0.637104 -0.372147 0.343011 255 0 0
-0.397142 0.051268 0.315613 255 0 0
0.657868 -0.315069 -0.018251 153 0 76
-0.625676 0.438644 0.162000 76 0 153
-0.700893 0.098862 0.127801 76 0 153
-0.681482 0.257422 -0.025755 76 0 153
-0.272281 -0.575225 0.192577 76 153 0
-0.242162 0.590172 -0.355780 255 0 0
-0.350369 0.449289 -0.200493 204 51 127
0.658183 -0.344301 0.284778 76 0 153
0.029505 0.432447 0.144623 0 0 255
-0.400339 0.508508 0.333818 153 76 0
0.433111 -0.496848 -0.288155 76 0 153
0.194654 -0.103778 -0.072739 127 127 0
0.057347 -0.689357 0.192577 76 153 0
-0.675057 0.590161 0.272023 76 0 153
0.424692 0.387846 0.343011 153 76 0
-0.681482 -0.056171 -0.367639 153 76 0
-0.398570 -0.158065 0.315613 255 0 0
-0.427298 0.484872 0.333818 153 76 0
-0.242245 -0.074662 -0.299973 127 127 0
-0.237179 0.533656 -0.384897 255 0 0
-0.596560 0.523370 -0.219979 204 51 127
-0.173950 0.471809 0.372539 76 0 153
-0.700893 -0.707298 -0.269803 153 76 0
-0.536468 -0.500372 0.343011 255 0 0
-0.111745 -0.229457 -0.341222 153 76 0
0.418210 0.548236 -0.341222 153 76 0
-0.493367 -0.074662 0.089828 127 127 0
-0.681482 0.222743 0.199951 76 0 153
-0.178392 -0.075734 -0.355780 153 76 0
0.481433 -0.074662 -0.127073 127 127 0
0.044597 -0.517908 0.192577 76 153 0
0.510203 -0.074662 0.186463 127 127 0
-0.700893 0.484385 -0.363942 76 0 153
-0.478674 0.203709 -0.341222 153 76 0
0.598529 0.547592 0.343011 153 76 0
0.677279 0.566730 -0.079494 153 0 76
0.006997 0.001313 0.337964 127 127 0
-0.565650 0.590161 -0.193408 153 0 76
0.485070 -0.538096 0.336829 127 127 0
-0.700893 0.576517 -0.072969 76 0 153
0.121642 0.611998 0.322333 153 76 0
-0.201798 0.319948 0.343011 255 0 0
-0.211344 -0.487143 0.289222 204 51 127
0.114672 0.461660 -0.200493 204 51 127
-0.681482 -0.314336 0.284528 153 0 76
-0.681482 0.119713 -0.189433 76 0 153
0.113800 0.080250 0.315613 127 127 0
0.577979 0.570750 -0.151978 0 0 255
0.532042 -0.426542 0.313895 127 127 0
-0.030529 -0.317364 0.313895 255 0 0
0.175362 0.309308 0.337365 127 127 0
0.274318 0.310819 0.313895 127 127 0
0.677279 0.518526 0.264406 153 0 76
-0.681482 0.485351 -0.049124 76 0 153
-0.596853 -0.074662 -0.326721 127 127 0
-0.524829 -0.103778 -0.339675 153 76 0
0.071008 0.441481 0.284778 153 76 0
0.443772 -0.103778 -0.197883 127 127 0
-0.700893 0.303935 -0.269049 76 0 153
-0.589580 0.570750 0.174287 153 0 76
0.304879 0.353831 0.313895 153 76 0
-0.097836 -0.496848 -0.274409 76 0 153
-0.141501 -0.103778 0.103689 127 127 0
-0.681482 0.074464 -0.344797 153 76 0
-0.114771 0.038615 0.343011 255 0 0
0.063414 -0.693954 -0.384897 76 0 153
-0.657357 0.590161 -0.313782 76 0 153
0.089432 0.270589 0.343011 127 127 0
-0.536136 0.432447 0.160086 0 0 255
0.273491 -0.614470 -0.384897 76 0 153
-0.681482 0.017587 -0.150535 76 0 153
-0.700893 0.599272 -0.139028 76 0 153
0.155446 -0.496848 -0.082720 76 0 153
0.210936 -0.280534 -0.355780 153 76 0
0.396764 -0.415955 0.315613 127 127 0
0.224556 -0.496848 -0.103515 76 0 153
0.588683 -0.496848 -0.319314 76 0 153
-0.513786 0.257682 -0.355780 153 76 0
-0.374831 -0.362519 -0.355780 153 76 0
-0.508847 0.052387 0.338765 255 0 0
-0.700893 0.110213 0.207571 76 0 153
-0.265478 0.345211 0.313895 0 0 255
-0.533965 -0.103778 0.137712 127 127 0
-0.337310 0.439727 0.090962 0 0 255
0.538703 0.139061 0.338765 127 127 0
0.396031 -0.551962 -0.384897 76 0 153
0.677279 -0.611743 -0.256525 153 0 76
0.543407 0.579982 0.343011 153 76 0
-0.681482 -0.427779 0.181586 76 0 153
0.459858 -0.674560 0.192577 76 153 0
-0.455170 -0.103778 0.284182 127 127 0
-0.602694 -0.042139 0.313895 255 0 0
0.309442 -0.214533 -0.355780 153 76 0
0.677279 -0.121784 -0.127250 153 0 76
-0.259311 -0.439896 -0.355780 153 76 0
-0.681482 -0.048901 0.118941 127 127 0
0.237697 -0.049782 0.315613 127 127 0
0.117053 0.547364 -0.355780 153 76 0
0.541403 0.576600 -0.027794 0 0 255
0.603855 0.515472 0.343011 153 76 0
-0.700893 -0.440538 0.017108 76 0 153
0.543948 0.570750 0.259372 0 0 255
-0.253429 0.432447 -0.058310 0 0 255
-0.596685 -0.097202 0.313895 255 0 0
-0.143886 0.361752 0.340181 153 76 0
-0.169868 -0.364661 0.338765 255 0 0
-0.700893 -0.052338 -0.175554 76 0 153
0.308578 0.493848 -0.200493 204 51 127
-0.625676 0.528769 0.137643 76 0 153
-0.415604 -0.113395 0.315613 255 0 0
0.596152 0.529502 -0.171794 153 0 76
0.596957 -0.496848 -0.102293 76 0 153
-0.217836 0.561044 0.291430 153 76 0
0.677279 0.448985 0.072430 153 0 76
-0.328163 -0.413399 -0.341222 153 76 0
0.677279 0.103616 -0.150064 153 0 76
-0.655775 -0.074662 0.108151 127 127 0
0.677279 -0.005550 -0.086263 153 0 76
0.176664 0.432447 0.260810 0 0 255
0.564150 -0.231876 0.336331 127 127 0
-0.513001 -0.332001 -0.341222 153 76 0
-0.681482 -0.323417 -0.331491 76 0 153
0.677279 -0.294796 -0.306111 153 0 76
-0.136225 0.475528 0.284778 153 76 0
-0.700893 0.288016 -0.307855 76 0 153
0.421688 -0.176137 -0.341222 153 76 0
-0.700893 0.169618 -0.166472 76 0 153
-0.692469 -0.545375 0.275069 76 0 153
-0.288427 -0.496848 -0.257149 76 0 153
-0.700893 0.331928 -0.165765 76 0 153
-0.587784 -0.489811 0.284778 76 0 153
0.197107 -0.496848 0.156788 76 0 153
-0.220285 0.225873 0.343011 255 0 0
0.369451 0.304082 0.389447 127 0 127
-0.681482 0.357118 0.103957 76 0 153
0.390284 0.432447 0.175847 0 0 255
0.658883 -0.042019 0.313895 76 0 153
0.644709 -0.601454 0.192577 76 153 0
-0.421380 0.413037 -0.202634 204 51 127
0.152045 -0.295958 0.338765 127 127 0
-0.045981 0.433334 -0.341222 153 76 0
-0.525014 0.585763 0.343011 153 76 0
0.445281 -0.103778 0.281799 127 127 0
-0.528338 -0.213873 0.315613 255 0 0
0.275828 0.374219 -0.355780 153 76 0
0.131349 0.208273 -0.341222 153 76 0
-0.432915 0.439727 -0.082942 0 0 255
0.623111 -0.074662 -0.023860 127 127 0
-0.152058 -0.496848 -0.286040 76 0 153
0.416621 0.375096 -0.355780 153 76 0
-0.297183 -0.516311 0.284778 204 51 127
-0.268006 -0.545375 0.309403 204 51 127
-0.141213 -0.074662 -0.020249 127 127 0
0.293139 0.469512 0.378184 76 0 153
-0.681482 0.253099 -0.264618 76 0 153
-0.258610 -0.496848 -0.149695 76 0 153
0.259346 0.595326 0.313895 153 76 0
0.635688 0.186808 0.284778 76 0 153
-0.431817 -0.008489 0.338765 255 0 0
-0.628152 0.590161 0.018957 153 0 76
-0.479466 -0.418456 0.333890 255 0 0
-0.700893 -0.570997 -0.349946 153 76 0
-0.568194 -0.207620 0.337519 255 0 0
-0.512465 -0.074662 0.132928 127 127 0
-0.649821 -0.074662 -0.087325 127 127 0
0.553755 -0.103778 -0.053345 127 127 0
-0.596560 0.413236 0.053874 76 0 153
0.150400 0.618179 0.313895 204 51 127
-0.630651 -0.074662 0.225647 127 127 0
-0.595604 -0.074662 0.151972 127 127 0
0.356051 0.109559 -0.355780 153 76 0
0.677279 0.390279 0.268637 153 0 76
-0.700893 -0.589422 -0.062797 153 76 0
-0.418753 -0.074662 0.011891 127 127 0
-0.344699 -0.159140 0.315613 255 0 0
0.677279 -0.383293 -0.156199 153 0 76
-0.013748 -0.322767 0.338888 255 0 0
0.453662 -0.447029 -0.355780 153 76 0
-0.572431 -0.496848 0.083451 76 0 153
-0.348147 -0.103778 0.256515 127 127 0
-0.681482 0.606761 -0.179617 76 0 153
0.130642 -0.515998 0.340965 127 127 0
-0.337869 0.570750 -0.352956 255 0 0
0.580070 0.345322 -0.341222 153 76 0
-0.005167 -0.103778 -0.237669 127 127 0
0.558991 0.590161 -0.232970 0 0 255
0.645073 -0.496848 0.052312 153 0 76
0.137773 0.496851 0.313895 153 76 0
-0.700893 0.511691 0.090709 76 0 153
0.529811 0.220761 0.343011 127 127 0
-0.284877 0.390137 0.313895 153 76 0
-0.529289 0.168759 0.338765 255 0 0
-0.544274 0.600633 -0.355780 255 0 0
0.046197 -0.577092 -0.384897 76 0 153
-0.666400 0.271627 0.343011 255 0 0
-0.215339 0.472541 0.313895 153 76 0
0.441434 0.432447 -0.188859 204 51 127
0.677279 -0.514158 -0.257521 153 0 76
-0.090943 -0.299882 0.343011 255 0 0
0.657868 0.308181 0.162394 153 0 76
-0.681482 0.136150 -0.010893 76 0 153
-0.475278 -0.699454 -0.384897 76 0 153
0.183018 -0.487143 0.308517 127 127 0
0.201377 -0.074662 -0.007157 127 127 0
-0.631172 -0.496848 0.222579 76 0 153
0.528205 -0.248656 0.338765 127 127 0
0.378123 0.329350 0.314995 0 0 255
-0.057539 0.455366 0.284778 0 0 255
0.657868 -0.122896 -0.070837 153 0 76
-0.180033 -0.103778 -0.165005 127 127 0
-0.286967 0.502222 -0.229610 204 51 127
0.377438 -0.103778 -0.329747 153 76 0
-0.486223 0.466412 -0.341222 153 76 0
-0.681482 -0.055040 0.010120 76 0 153
0.564264 -0.496848 0.167029 76 0 153
-0.203634 0.361466 0.341216 153 76 0
-0.681482 0.594705 -0.375062 76 0 153
0.555707 -0.453606 0.343011 127 127 0
0.527606 -0.496848 0.089382 76 0 153
0.162905 -0.545375 0.310630 204 51 127
0.332065 -0.103778 0.142213 127 127 0
0.364092 -0.540860 0.313895 204 51 127
0.327611 -0.496848 -0.253744 76 0 153
-0.089215 0.048053 0.313895 255 0 0
0.585639 0.123708 0.343011 127 127 0
-0.407439 -0.528774 0.313895 204 51 127
0.677279 -0.697647 -0.207681 153 0 76
0.489188 -0.336066 0.338765 127 127 0
-0.695598 -0.699380 -0.384897 153 76 0
0.501752 -0.074662 0.048807 127 127 0
0.181540 0.487980 -0.355780 255 0 0
0.046206 0.199547 -0.341222 153 76 0
0.207285 -0.367776 -0.341222 153 76 0
-0.109296 -0.527317 0.284778 204 51 127
-0.700893 -0.641347 0.012132 153 76 0
-0.087241 -0.507189 -0.355780 153 76 0
0.363841 0.432447 -0.159028 0 0 255
-0.046750 0.055840 -0.341222 153 76 0
-0.681482 -0.010947 -0.228726 76 0 153
-0.681482 -0.112377 -0.312944 127 127 0
-0.700893 -0.029243 -0.277718 76 0 153
0.352403 0.568122 -0.384897 255 0 0
-0.681482 0.013022 0.267231 76 0 153
0.030612 0.119410 0.313895 127 127 0
-0.371942 -0.496848 -0.183777 76 0 153
-0.043511 -0.302084 0.343011 255 0 0
0.133541 -0.616314 -0.384897 76 0 153
0.006663 0.227235 0.340646 127 127 0
0.598259 -0.046596 0.313895 127 127 0
0.657868 -0.331347 -0.060334 153 0 76
-0.681482 -0.256681 -0.237295 76 0 153
-0.283974 -0.294652 0.315613 255 0 0
-0.525086 -0.496848 0.231268 76 0 153
0.602092 -0.570767 0.192577 76 153 0
0.677279 0.552907 -0.371972 153 0 76
0.298312 0.413037 -0.202541 204 51 127
-0.681482 0.550101 -0.144345 76 0 153
-0.493286 0.048122 -0.341222 153 76 0
-0.700893 -0.164213 0.025074 76 0 153
0.018628 0.345376 0.340434 153 76 0
-0.691876 -0.356787 0.313895 153 0 76
0.377986 0.493816 -0.229610 204 51 127
-0.453981 -0.103778 -0.047194 127 127 0
0.572945 0.477122 -0.115996 153 0 76
-0.681482 0.155733 -0.110565 76 0 153
-0.013784 -0.103778 0.095004 127 127 0
-0.191261 0.159571 0.315613 255 0 0
0.082821 0.439727 0.167850 0 0 255
0.657868 0.272837 -0.020574 153 0 76
-0.154925 0.195460 -0.341222 153 76 0
0.484826 0.443297 -0.341222 153 76 0
-0.237028 0.223325 0.313895 255 0 0
0.008640 0.389569 0.313895 153 76 0
0.657868 -0.345959 0.115674 153 0 76
-0.700893 0.017599 0.213734 76 0 153
-0.508695 0.357267 0.313895 153 76 0
0.587770 -0.103778 0.191643 127 127 0
-0.154824 -0.492539 -0.341222 76 0 153
0.310278 -0.103778 -0.221462 127 127 0
-0.703313 0.575797 0.339422 153 76 0
0.677279 -0.220454 -0.183525 153 0 76
0.014372 0.205164 -0.341222 153 76 0
0.349035 -0.074662 0.164893 127 127 0
-0.565779 0.570750 -0.021300 153 0 76
-0.565694 0.111606 0.338765 255 0 0
0.492393 -0.529341 0.192577 76 153 0
0.204850 0.414214 -0.229610 204 51 127
0.624259 0.590161 0.046107 0 0 255
0.559238 -0.643785 0.192577 76 153 0
-0.625676 0.416821 0.282860 76 0 153
0.049551 -0.103778 -0.280306 127 127 0
0.572945 0.464983 -0.186580 153 0 76
-0.649540 -0.103778 -0.055635 127 127 0
-0.247396 0.472103 0.284778 153 76 0
-0.314905 -0.188394 -0.341222 153 76 0
0.677279 -0.246508 0.274869 153 0 76
0.172984 0.430866 0.313895 153 76 0
-0.681482 0.163676 0.027325 76 0 153
-0.699633 -0.247767 -0.384897 76 0 153
0.647454 0.409660 0.343011 153 76 0
-0.038871 -0.446375 0.342966 255 0 0
0.365096 -0.316893 -0.341222 153 76 0
-0.681482 -0.475314 0.150543 76 0 153
0.242413 0.615437 -0.355780 255 0 0
-0.131217 0.294379 0.361767 0 255 0
-0.681482 -0.280206 -0.026214 76 0 153
0.657868 0.464658 -0.125138 153 0 76
0.571638 -0.340771 0.313895 127 127 0
-0.566652 0.058931 0.338616 255 0 0
0.677279 0.402922 -0.158640 153 0 76
0.383456 -0.496848 0.179638 76 0 153
-0.440594 -0.074662 0.168693 127 127 0
-0.681482 0.055505 0.006850 76 0 153
-0.625676 0.438020 -0.171435 76 0 153
0.344931 -0.685034 -0.384897 76 0 153
-0.681641 -0.198941 0.338601 255 0 0
-0.014540 0.147840 0.315393 127 127 0
-0.434120 -0.257442 -0.355780 153 76 0
0.657868 0.084814 0.036858 153 0 76
0.593272 0.101652 -0.355780 153 76 0
-0.681482 0.281178 -0.096449 76 0 153
0.686984 0.421847 0.311606 76 0 153
-0.489142 0.590588 -0.384897 255 0 0
0.470509 -0.359562 0.338765 127 127 0
-0.061357 -0.163523 0.313895 255 0 0
0.628751 -0.209788 0.286885 76 0 153
0.677279 0.263345 0.083870 153 0 76
0.263754 -0.627373 0.192577 76 153 0
0.657868 -0.034792 -0.047332 153 0 76
-0.268777 0.576535 0.313895 204 51 127
0.063768 0.439727 0.073691 0 0 255
0.643349 -0.644699 0.192577 76 153 0
0.286030 -0.103778 -0.273725 127 127 0
-0.358001 -0.074662 0.215885 127 127 0
0.677279 0.102432 -0.199094 153 0 76
-0.001854 0.286634 0.313895 127 127 0
-0.067968 -0.496848 -0.145315 76 0 153
-0.152689 0.594256 -0.355780 255 0 0
0.306961 -0.116134 0.338765 127 127 0
0.677279 0.281388 -0.128833 153 0 76
0.559787 0.394276 -0.341222 153 76 0
0.454202 0.432447 0.129845 0 0 255
0.415088 0.619277 -0.363039 255 0 0
-0.528295 -0.660968 0.192577 76 153 0
0.579913 -0.317027 -0.341222 153 76 0
-0.660442 -0.319439 0.313895 153 0 76
-0.114175 -0.360439 0.343011 255 0 0
-0.520840 0.299704 0.313895 0 0 255
0.635134 0.590161 -0.013144 0 0 255
0.654764 0.526773 -0.355780 153 0 76
0.121887 -0.338493 -0.355780 153 76 0
-0.681482 -0.228217 -0.244193 76 0 153
-0.681482 0.398585 -0.256755 76 0 153
-0.700893 0.202625 -0.025059 76 0 153
0.003334 0.580676 -0.355780 255 0 0
0.229308 -0.203061 0.315613 127 127 0
0.551050 -0.439489 -0.341222 153 76 0
-0.700893 -0.203304 0.118044 76 0 153
0.677279 -0.619786 -0.357538 153 0 76
0.153340 -0.074662 0.180762 127 127 0
-0.681482 0.192044 0.099109 76 0 153
0.131629 0.426941 -0.355780 153 76 0
0.310821 -0.103778 0.211127 127 127 0
0.378454 0.222872 0.313895 127 127 0
0.329723 -0.074662 -0.062869 127 127 0
0.023871 0.439727 0.104187 0 0 255
-0.584885 0.570750 -0.131171 153 0 76
0.131451 0.462767 0.284778 153 76 0
0.562506 -0.524157 0.192577 76 153 0
0.186850 -0.361046 0.338765 127 127 0
0.255965 0.495951 -0.355780 255 0 0
0.350983 -0.068201 0.338765 127 127 0
0.677279 0.091001 -0.256753 153 0 76
0.474117 -0.074662 0.251851 127 127 0
0.657868 0.260505 -0.280451 153 0 76
-0.553905 -0.496848 0.029807 76 0 153
0.312752 0.570073 0.313895 204 51 127
0.234476 -0.379750 -0.341222 153 76 0
0.628751 0.493114 0.312399 76 0 153
0.188007 -0.074662 -0.329049 127 127 0
-0.700893 0.501963 -0.297271 76 0 153
-0.356372 -0.074662 0.167457 127 127 0
0.356884 0.463233 -0.229610 204 51 127
0.279123 0.365627 0.337365 153 76 0
-0.048161 -0.074662 -0.294248 127 127 0
-0.526891 0.532680 -0.341222 153 76 0
-0.091633 -0.715359 0.192577 76 153 0
0.458138 -0.183048 0.338765 127 127 0
0.652470 0.590161 -0.146444 0 0 255
-0.181727 -0.103778 0.207736 127 127 0
0.126977 0.485621 -0.341222 153 76 0
0.327045 -0.050739 0.338765 127 127 0
-0.175063 0.083695 0.315613 255 0 0
0.211932 -0.496848 0.103407 76 0 153
0.677279 -0.528335 -0.353447 153 0 76
0.394752 0.073410 -0.355780 153 76 0
0.677279 0.228305 -0.108461 153 0 76
-0.700893 -0.404478 0.222066 76 0 153
-0.599888 -0.074662 -0.223400 127 127 0
0.677279 -0.338246 0.010815 153 0 76
0.677279 -0.368296 -0.339144 153 0 76
-0.605193 0.105961 0.343011 255 0 0
-0.336848 0.234044 -0.355780 153 76 0
-0.599893 -0.496848 -0.320292 76 0 153
0.602062 0.424288 0.091569 153 0 76
-0.544451 -0.074662 -0.257881 127 127 0
-0.538740 -0.555395 -0.384897 76 0 153
-0.582871 -0.366451 0.315613 255 0 0
0.602062 0.504270 0.133494 153 0 76
0.677279 0.295870 -0.210740 153 0 76
-0.681482 0.389489 -0.298137 76 0 153
0.657868 -0.127821 -0.231544 153 0 76
0.171219 0.547961 -0.355780 153 76 0
0.216551 -0.713862 -0.384897 76 0 153
-0.710599 0.545644 0.306802 153 76 0
0.506414 0.594134 -0.355780 255 0 0
-0.099243 -0.496848 -0.063627 76 0 153
0.677279 0.244687 -0.057223 153 0 76
-0.700893 -0.451850 -0.085103 76 0 153
0.628751 -0.163285 0.286570 76 0 153
0.557350 0.273457 -0.341222 153 76 0
-0.469469 -0.555879 0.192577 76 153 0
0.372843 -0.103778 0.269908 127 127 0
0.657868 -0.271465 -0.364783 153 0 76
-0.348117 -0.649317 -0.384897 76 0 153
-0.239044 -0.069844 0.315613 255 0 0
0.068737 0.439727 -0.040387 0 0 255
0.098231 -0.496848 -0.222798 76 0 153
0.143977 -0.496848 0.049893 76 0 153
0.546940 0.319158 0.313895 127 127 0
0.677279 -0.490465 -0.158529 153 0 76
0.426915 -0.496848 -0.218656 76 0 153
-0.680567 0.428575 0.313895 153 0 76
-0.681482 0.345768 -0.028060 76 0 153
0.583272 0.442345 -0.341222 153 76 0
-0.351019 0.163927 0.315613 255 0 0
-0.614226 0.590161 -0.320196 153 0 76
0.657868 0.441807 -0.208992 153 0 76
0.102188 0.224906 0.313895 127 127 0
0.657868 -0.279015 0.096179 153 0 76
0.422803 0.432447 -0.100727 0 0 255
-0.615409 -0.529355 -0.384897 76 0 153
0.507353 0.097023 0.315613 127 127 0
0.657868 0.140321 0.071586 153 0 76
0.302835 0.015468 -0.355780 153 76 0
-0.635156 0.361091 -0.341222 153 76 0
0.475083 -0.281324 -0.355780 153 76 0
-0.681482 -0.004830 0.199661 76 0 153
0.328781 0.439727 0.148945 0 0 255
0.599793 -0.415207 0.343011 127 127 0
-0.579268 -0.103778 0.001454 127 127 0
0.488165 0.285997 0.343011 127 127 0
-0.700893 -0.060594 -0.225273 76 0 153
-0.446167 0.619277 -0.371155 255 0 0
-0.534600 -0.152561 -0.355780 153 76 0
0.231911 -0.395887 0.338765 127 127 0
-0.681482 0.617803 0.035151 76 0 153
-0.324583 0.432447 -0.002591 0 0 255
0.511471 -0.496848 -0.164157 76 0 153
-0.283135 -0.074662 0.088483 127 127 0
-0.414617 -0.502296 -0.384897 76 0 153
0.348711 0.140214 0.315613 127 127 0
-0.012317 -0.103778 -0.043893 127 127 0
0.238452 0.439727 0.087539 0 0 255
0.266845 -0.496848 -0.118497 76 0 153
-0.041075 -0.517677 -0.384897 76 0 153
-0.392322 0.443676 0.284778 153 76 0
-0.454553 -0.634696 -0.384897 76 0 153
0.273247 -0.517732 0.313895 204 51 127
0.397933 -0.032843 0.338765 127 127 0
0.145188 0.382537 -0.341222 153 76 0
-0.700893 0.329902 0.022688 76 0 153
-0.008957 0.439727 -0.047396 0 0 255
0.312822 -0.496848 0.171520 76 0 153
-0.700893 0.172828 -0.203859 76 0 153
0.363343 0.441281 -0.200493 204 51 127
0.330670 0.432447 0.254861 0 0 255
-0.361807 0.574152 0.284778 204 51 127
0.291268 -0.074662 -0.086059 127 127 0
-0.001336 0.430385 0.313895 153 76 0
-0.240040 -0.496848 0.262034 204 51 127
-0.700893 -0.182073 -0.219037 76 0 153
0.657868 -0.430907 -0.226782 153 0 76
0.047946 0.496938 0.284778 153 76 0
-0.453836 0.611009 0.313895 204 51 127
0.657868 0.070812 -0.025870 153 0 76
-0.026053 0.409068 0.313895 153 76 0
0.026604 -0.103778 -0.056245 127 127 0
-0.436208 -0.496848 -0.183192 76 0 153
0.572945 0.493213 0.046728 153 0 76
-0.485046 0.023725 0.338765 255 0 0
-0.681482 0.163713 0.154860 76 0 153
0.657868 0.217302 -0.236684 153 0 76
0.271566 0.310056 -0.355780 153 76 0
0.535065 -0.118403 -0.341222 127 127 0
-0.587231 0.214947 -0.341222 153 76 0
0.657868 -0.499692 -0.284610 153 0 76
0.677279 0.372308 0.005600 153 0 76
0.536555 0.439727 -0.153311 0 0 255
-0.595968 0.590161 0.066961 153 0 76
0.507507 0.439727 0.125721 0 0 255
0.677279 -0.417193 0.184255 153 0 76
-0.195071 0.439727 -0.132566 0 0 255
-0.523643 -0.074662 0.180944 127 127 0
-0.636646 -0.538019 0.317220 255 0 0
0.426323 0.413892 0.313895 153 76 0
-0.328015 -0.422541 0.338302 255 0 0
-0.681482 -0.033510 -0.206964 76 0 153
-0.700893 -0.354997 -0.125902 76 0 153
-0.153926 0.439727 -0.173604 0 0 255
-0.700893 -0.439868 -0.353760 76 0 153
0.637825 -0.103778 -0.076353 153 0 76
-0.436190 0.366936 0.287468 0 0 255
-0.450068 0.328955 0.314600 153 76 0
-0.601723 -0.716021 -0.384897 76 0 153
0.677279 0.268304 -0.226471 153 0 76
0.275920 -0.496848 -0.175868 76 0 153
0.197446 0.439727 -0.100166 0 0 255
0.677279 0.077076 -0.294432 153 0 76
0.380546 -0.131701 -0.341222 153 76 0
0.033946 0.439727 0.263676 0 0 255
0.620746 -0.332499 0.343011 127 127 0
-0.120225 -0.103778 0.184605 127 127 0
-0.117250 -0.496848 -0.253081 76 0 153
0.657868 0.558760 -0.097725 153 0 76
-0.615190 0.561044 0.289484 153 0 76
-0.442450 0.439727 -0.115768 0 0 255
-0.394073 -0.074662 0.206003 127 127 0
0.504761 0.439727 -0.093899 0 0 255
-0.371144 -0.387611 0.315613 255 0 0
0.316404 0.539320 0.313895 153 76 0
-0.281594 -0.217186 0.338765 255 0 0
0.177026 -0.544341 0.192577 76 153 0
-0.404664 -0.103778 -0.267702 127 127 0
-0.700893 -0.634074 -0.204733 153 76 0
0.288090 0.361794 0.284778 0 0 255
0.406114 -0.209796 -0.341222 153 76 0
-0.636798 0.323283 -0.341222 153 76 0
0.345811 -0.282571 0.315613 127 127 0
-0.613442 -0.522776 0.342264 255 0 0
-0.384763 -0.074662 0.122007 127 127 0
-0.087019 0.435632 0.284778 0 0 255
-0.646997 -0.672405 0.192577 76 153 0
-0.656163 -0.074662 -0.060384 127 127 0
0.605376 0.570750 -0.328996 0 0 255
0.490624 -0.368557 -0.355780 153 76 0
-0.700893 -0.144038 -0.241712 76 0 153
-0.681482 -0.157560 0.256351 76 0 153
-0.580342 0.495276 0.284778 153 76 0
-0.643797 0.199383 0.313895 255 0 0
-0.676693 0.255736 -0.341222 76 0 153
-0.456659 0.524774 -0.229610 204 51 127
-0.252424 -0.496848 0.001543 76 0 153
0.498885 0.521566 0.315613 153 76 0
0.433569 -0.711653 0.192577 76 153 0
-0.589743 -0.496848 0.202913 76 0 153
0.677279 -0.236767 -0.159776 153 0 76
-0.590009 -0.270050 0.343011 255 0 0
-0.218793 0.447383 -0.229610 204 51 127
0.340112 -0.149837 0.338765 127 127 0
-0.062446 0.438873 0.313895 153 76 0
0.025209 -0.512006 -0.341222 153 76 0
0.050335 -0.402197 0.343011 127 127 0
-0.681482 0.156734 0.215884 76 0 153
0.272634 0.473039 -0.355780 153 76 0
-0.628413 -0.103778 -0.218468 127 127 0
0.248202 0.458163 -0.200493 204 51 127
0.677279 0.088935 0.227357 153 0 76
-0.381404 0.062755 -0.355780 153 76 0
-0.022584 -0.513321 -0.355780 153 76 0
-0.308547 -0.605258 0.192577 76 153 0
-0.131911 -0.496848 0.093281 76 0 153
-0.268295 0.543988 -0.355780 153 76 0
-0.068010 -0.407554 0.313895 255 0 0
0.686984 0.252819 0.285781 153 0 76
-0.324531 -0.103778 -0.085797 127 127 0
0.396363 0.330393 0.339948 153 76 0
0.388749 0.189431 -0.341222 153 76 0
-0.670312 -0.082361 0.284778 127 127 0
0.572945 0.510976 -0.046197 153 0 76
-0.189254 0.107933 0.315613 255 0 0
-0.518512 -0.103778 -0.099145 127 127 0
-0.080302 -0.356291 -0.355780 153 76 0
-0.642327 -0.295883 -0.341222 153 76 0
0.331112 -0.107274 -0.355780 153 76 0
-0.068688 -0.103778 0.104007 127 127 0
-0.506461 -0.496848 0.109689 76 0 153
-0.700893 -0.508523 -0.267685 76 0 153
0.662154 0.326092 0.313895 127 127 0
-0.691861 0.333010 0.284778 76 0 153
0.163191 -0.151895 0.315613 127 127 0
-0.681482 0.117326 -0.112664 76 0 153
0.231648 -0.380458 0.315613 127 127 0
-0.564152 -0.074662 -0.314170 127 127 0
0.314844 0.502812 -0.368959 255 0 0
0.598966 -0.496848 0.224563 76 0 153
0.344328 0.432447 -0.064751 0 0 255
-0.571306 0.439727 -0.081133 0 0 255
-0.619494 0.351903 0.313895 0 0 255
-0.700893 -0.102262 -0.223011 76 0 153
0.602062 0.439509 -0.007448 153 0 76
0.427405 0.308703 0.308804 0 0 255
0.677279 -0.153287 -0.241765 153 0 76
0.677279 0.553374 -0.040452 153 0 76
-0.566679 0.570288 0.284778 204 51 127
-0.179767 -0.515508 0.313895 255 0 0
-0.183668 -0.213373 -0.341222 153 76 0
-0.442793 -0.545375 0.295311 204 51 127
-0.481405 -0.517658 0.284778 204 51 127
0.657868 -0.207722 -0.302846 153 0 76
-0.700893 -0.169990 -0.249923 76 0 153
-0.071890 0.289062 0.343011 255 0 0
-0.700893 -0.296172 -0.365808 76 0 153
-0.478991 0.404781 0.343011 153 76 0
-0.604432 -0.074662 0.022987 127 127 0
-0.681482 -0.195105 -0.019089 76 0 153
0.513250 -0.697998 -0.384897 76 0 153
0.657868 0.332428 0.059365 153 0 76
0.607660 -0.201776 -0.341222 153 76 0
0.529509 0.529502 0.286808 153 76 0
0.244919 0.432447 0.131321 0 0 255
0.112475 -0.496848 -0.130676 76 0 153
0.450664 0.429339 0.338872 153 76 0
-0.267135 -0.103778 0.017113 127 127 0
-0.051971 0.366936 0.308939 0 0 255
-0.681482 0.413291 -0.163333 76 0 153
0.146306 0.445410 -0.229610 204 51 127
-0.681110 0.169959 -0.355780 76 0 153
0.572945 0.426205 0.227984 153 0 76
0.657868 -0.244416 -0.381252 153 0 76
-0.272087 0.169440 0.315613 255 0 0
-0.426406 -0.517267 0.284778 204 51 127
-0.314313 0.297652 0.343011 255 0 0
-0.069963 -0.417835 -0.355780 153 76 0
0.541505 0.570750 0.104211 0 0 255
0.066418 -0.496848 0.209387 76 0 153
-0.280855 -0.247160 -0.355780 153 76 0
-0.681482 0.526481 -0.295504 76 0 153
0.120667 -0.137420 -0.341222 153 76 0
0.121105 -0.487143 0.303414 204 51 127
-0.459471 -0.383613 0.338765 255 0 0
-0.604488 0.545440 0.343011 153 76 0
-0.192371 -0.018344 0.338765 255 0 0
-0.074902 -0.074662 0.124985 127 127 0
-0.700893 -0.051533 0.160824 76 0 153
-0.332399 0.391806 -0.355780 153 76 0
0.628751 0.256376 0.288566 76 0 153
0.039800 -0.074662 -0.294445 127 127 0
0.677279 -0.096122 -0.307149 153 0 76
-0.417635 0.502756 0.313895 153 76 0
0.453469 0.007246 0.338765 127 127 0
-0.189513 -0.074662 -0.195120 127 127 0
-0.418399 0.532567 0.343011 153 76 0
-0.337870 -0.491995 -0.384752 76 0 153
0.360197 -0.074662 -0.018548 127 127 0
0.532234 0.561462 0.313895 204 51 127
0.659445 0.619277 -0.233501 153 0 76
0.574082 0.554060 0.313895 153 76 0
0.347124 -0.074662 -0.300158 127 127 0
-0.180995 0.430113 0.315613 153 76 0
-0.615110 -0.196851 -0.355780 153 76 0
0.657868 0.535630 0.035240 153 0 76
-0.010358 0.561044 0.312392 153 76 0
-0.452792 -0.388907 -0.341222 153 76 0
-0.284959 -0.496848 0.184982 76 0 153
-0.102518 0.019653 -0.355780 153 76 0
-0.565705 0.252857 -0.341222 153 76 0
-0.681482 -0.500425 0.184796 76 0 153
0.464139 -0.103778 0.103541 127 127 0
0.146483 0.565286 0.313895 153 76 0
-0.220523 -0.103778 -0.312721 127 127 0
-0.700893 -0.394545 0.189225 76 0 153
-0.640244 0.398076 0.313895 153 76 0
0.572945 0.448845 -0.134902 153 0 76
0.340967 -0.570963 -0.384897 76 0 153
0.295143 0.445036 -0.229610 204 51 127
-0.375876 -0.074662 0.049667 127 127 0
0.399687 -0.533366 0.343011 127 127 0
-0.700893 -0.687101 0.176739 153 76 0
-0.366528 0.502812 -0.381164 255 0 0
-0.593997 0.314583 -0.341222 153 76 0
0.096686 -0.103778 -0.173892 127 127 0
0.104610 -0.681087 -0.384897 76 0 153
0.328561 -0.296387 0.338765 127 127 0
-0.619896 0.570750 -0.129239 153 0 76
0.215339 0.432447 0.000794 0 0 255
-0.539485 0.346701 0.284778 0 0 255
0.657868 0.199399 0.139781 153 0 76
-0.578751 0.590161 0.128259 153 0 76
-0.496800 -0.241854 0.338765 255 0 0
0.042948 -0.496848 -0.021216 76 0 153
0.347380 0.424698 -0.355780 153 76 0
0.423833 -0.414378 -0.355780 153 76 0
0.677279 0.305340 0.022786 153 0 76
0.194646 0.432447 0.125189 0 0 255
-0.498902 -0.604422 0.192577 76 153 0
-0.681482 0.139962 0.168794 76 0 153
0.444715 -0.704754 -0.384897 76 0 153
-0.601994 0.570750 -0.157228 153 0 76
0.346162 0.253933 0.343011 127 127 0
-0.338683 0.439727 -0.056924 0 0 255
-0.223718 0.252730 0.313895 255 0 0
0.243882 0.078904 0.315613 127 127 0
-0.700893 -0.392271 0.269115 76 0 153
0.252815 -0.473515 -0.355780 153 76 0
-0.113750 0.439727 0.208808 0 0 255
-0.700893 0.390448 -0.175915 76 0 153
0.563678 0.570750 0.030633 0 0 255
0.515883 0.281847 -0.341222 153 76 0
0.084926 -0.375617 -0.355780 153 76 0
-0.521773 -0.402722 0.337798 255 0 0
0.614261 0.281329 -0.355780 153 76 0
-0.132963 0.213238 -0.341222 153 76 0
-0.052594 -0.103778 0.270476 127 127 0
-0.596560 0.469420 0.048993 76 0 153
-0.700893 0.215719 0.014743 76 0 153
0.290493 0.531544 0.343011 153 76 0
0.097223 0.425679 0.313895 153 76 0
0.572945 0.523462 -0.000042 153 0 76
-0.253575 -0.103778 0.207591 127 127 0
-0.107855 -0.080452 0.284778 127 127 0
0.563754 0.322712 -0.341222 153 76 0
0.450708 -0.503239 -0.341222 76 0 153
-0.374903 -0.035418 0.338765 255 0 0
-0.677240 0.590161 -0.247163 153 0 76
0.657868 -0.481837 -0.228253 153 0 76
-0.188754 0.499485 -0.229610 204 51 127
0.251546 -0.021096 -0.355780 153 76 0
-0.596091 0.432447 0.198383 0 0 255
0.657868 0.046741 -0.104701 153 0 76
-0.681482 0.057290 0.220034 76 0 153
0.657868 0.317699 -0.083878 153 0 76
0.049571 -0.463725 0.343011 127 127 0
-0.666580 -0.713755 -0.384897 76 0 153
0.078346 -0.103778 -0.053221 127 127 0
0.249152 0.330540 0.327716 127 127 0
0.225408 0.505560 -0.229610 204 51 127
0.657868 -0.291841 0.265217 153 0 76
-0.545203 0.439727 -0.041609 0 0 255
0.594700 -0.074662 -0.252856 127 127 0
0.174528 -0.423874 0.342649 127 127 0
0.406079 -0.435986 -0.341222 153 76 0
-0.435728 -0.103778 0.049923 127 127 0
-0.072788 -0.103778 -0.089913 127 127 0
0.657868 0.271373 0.163050 153 0 76
0.337654 -0.103778 0.079585 127 127 0
0.147156 0.502812 -0.371122 255 0 0
0.211953 -0.103778 -0.030475 127 127 0
-0.596560 0.415108 -0.152915 76 0 153
0.566021 -0.074662 0.146453 127 127 0
0.602062 0.499908 0.080489 153 0 76
-0.226004 0.592425 -0.384897 255 0 0
-0.700893 0.316861 0.255341 76 0 153
0.657868 0.503795 0.085226 153 0 76
0.188127 0.557541 0.343011 153 76 0
-0.177211 -0.229944 0.338765 255 0 0
0.477373 -0.168415 0.315613 127 127 0
0.683305 0.209883 0.284778 76 0 153
0.067131 0.439727 0.135008 0 0 255
-0.474711 0.476311 0.284778 153 76 0
0.656034 0.588574 -0.355780 153 0 76
-0.122498 -0.496848 -0.083637 76 0 153
0.582212 -0.103778 0.114824 127 127 0
0.677279 0.051434 -0.341493 153 0 76
-0.086062 0.181179 -0.355780 153 76 0
-0.681482 0.438505 -0.363505 76 0 153
0.115420 0.461090 -0.341222 153 76 0
0.657868 0.114156 -0.106064 153 0 76
0.288434 -0.559903 -0.384897 76 0 153
-0.002909 -0.074662 0.019835 127 127 0
0.197398 0.456367 0.313895 153 76 0
-0.376892 0.156598 0.315613 255 0 0
0.677279 -0.278099 0.015553 153 0 76
0.260692 0.065330 0.338765 127 127 0
-0.202615 0.610641 0.313895 204 51 127
-0.314730 0.346625 0.342246 153 76 0
0.677279 0.505647 -0.095682 153 0 76
0.677279 -0.131509 0.016922 153 0 76
-0.681482 -0.052045 0.073324 76 0 153
-0.118703 -0.207876 -0.355780 153 76 0
-0.483996 0.527757 0.314490 153 76 0
-0.596560 0.504135 0.308609 76 0 153
0.262580 -0.074662 -0.032508 127 127 0
0.272281 -0.074662 0.089315 127 127 0
0.159821 -0.391569 0.315613 127 127 0
-0.700893 0.511576 -0.138485 76 0 153
-0.370414 0.320342 0.343011 255 0 0
-0.700893 -0.386207 0.146495 76 0 153
-0.277484 0.397559 0.343011 153 76 0
-0.410645 -0.074662 0.090399 127 127 0
-0.224744 -0.196478 0.338765 255 0 0
-0.681482 -0.541245 -0.294154 76 0 153
0.435219 -0.496848 -0.122591 76 0 153
-0.548368 0.308703 0.304432 255 0 0
-0.433284 -0.433064 0.313895 255 0 0
0.258601 -0.496848 -0.068187 76 0 153
-0.160046 -0.538096 0.325054 255 0 0
0.119666 0.496434 -0.229610 204 51 127
0.657868 -0.296785 -0.094077 153 0 76
-0.700893 0.354856 0.045740 76 0 153
-0.078937 -0.074662 -0.053596 127 127 0
0.677279 0.523439 0.156051 153 0 76
-0.681482 0.424070 -0.208948 76 0 153
-0.140444 -0.103778 0.042145 127 127 0
0.593746 -0.140877 -0.355780 153 76 0
0.395029 -0.124279 0.338765 127 127 0
-0.700893 -0.401283 -0.032412 76 0 153
0.092810 -0.074662 -0.149284 127 127 0
-0.013142 0.366936 0.293066 0 0 255
-0.552691 -0.335939 0.338765 255 0 0
-0.127045 0.473632 0.385592 76 0 153
0.677279 -0.459789 -0.382372 153 0 76
-0.272750 0.286011 -0.355780 153 76 0
0.657868 0.507219 -0.305425 153 0 76
-0.021683 0.439727 0.185919 0 0 255
0.363704 0.060056 -0.355780 153 76 0
0.622176 -0.233246 0.313895 76 0 153
0.677279 0.618043 0.236461 153 0 76
0.034099 -0.103778 -0.160679 127 127 0
-0.215652 0.432447 -0.182547 0 0 255
0.657868 -0.295926 -0.260257 153 0 76
0.677279 0.189724 0.160493 153 0 76
0.464393 0.561044 0.298387 204 51 127
-0.030397 -0.042842 -0.341222 153 76 0
0.677279 0.379444 0.044142 153 0 76
-0.641183 0.566813 0.284778 153 0 76
-0.379178 -0.545709 -0.384897 76 0 153
-0.635865 0.508204 -0.355780 255 0 0
-0.387651 0.432447 0.245042 0 0 255
0.677279 0.508656 -0.280080 153 0 76
-0.602002 -0.356565 0.343011 255 0 0
-0.700893 0.291942 -0.160592 76 0 153
-0.014313 -0.474550 -0.355780 153 76 0
0.366053 -0.496848 0.228961 76 0 153
-0.051743 0.284647 -0.355780 153 76 0
0.657868 -0.005657 0.046436 153 0 76
0.631052 0.570750 0.121403 0 0 255
-0.681482 -0.328675 -0.159946 76 0 153
-0.243396 0.435052 0.313895 153 76 0
0.657868 0.236645 0.245081 153 0 76
0.677279 0.069951 0.170748 153 0 76
0.365801 0.422879 0.313895 153 76 0
0.388694 0.477996 0.387050 76 0 153
-0.085678 -0.074662 -0.004949 127 127 0
-0.231798 -0.313625 -0.355780 153 76 0
0.485658 0.539724 -0.355780 153 76 0
0.279640 0.439727 -0.062764 0 0 255
-0.629449 -0.010857 0.343011 255 0 0
-0.064822 -0.620065 0.192577 76 153 0
-0.681482 -0.256892 0.185790 76 0 153
-0.681482 0.428996 0.173717 76 0 153
-0.470113 -0.074662 -0.339199 153 76 0
0.393807 -0.074662 0.130460 127 127 0
-0.684033 -0.158464 0.284778 153 0 76
-0.681482 0.241463 0.219046 76 0 153
-0.442112 0.494832 -0.229610 204 51 127
0.136716 -0.063036 0.315613 127 127 0
0.053604 -0.074662 -0.042637 127 127 0
0.677279 -0.676244 0.009413 153 0 76
0.199688 -0.018238 0.338765 127 127 0
-0.484017 -0.074662 -0.278668 127 127 0
0.652554 0.590161 0.077737 153 0 76
-0.180185 -0.496848 0.069570 76 0 153
0.657868 0.533949 0.217793 153 0 76
-0.625676 0.525228 -0.215330 76 0 153
0.449580 0.366936 0.286952 0 0 255
0.014749 0.439727 0.232025 0 0 255
0.677279 0.409744 -0.289546 153 0 76
-0.348880 0.461917 0.284778 153 76 0
0.018207 -0.074662 0.078146 127 127 0
-0.703169 0.305353 0.316945 153 0 76
-0.645856 0.618573 0.284778 204 51 127
-0.562430 -0.193450 0.315613 255 0 0
-0.081891 -0.567887 0.192577 76 153 0
0.677279 -0.229130 -0.240570 153 0 76
0.572523 0.211599 0.313895 127 127 0
0.465804 0.507890 -0.200493 204 51 127
0.030116 -0.402518 0.313895 127 127 0
0.529484 -0.496848 -0.327487 153 76 0
-0.384384 0.373594 -0.355780 153 76 0
-0.700893 0.059252 -0.290170 76 0 153
0.211159 -0.496848 0.024096 76 0 153
0.052080 0.432447 -0.105755 0 0 255
0.657868 -0.450460 -0.329418 153 76 0
0.162783 0.156201 -0.341222 153 76 0
0.657868 -0.051236 0.140258 153 0 76
0.466816 0.280246 0.313895 127 127 0
0.677279 -0.176728 -0.171793 153 0 76
-0.700893 0.293058 0.196817 76 0 153
0.677279 0.223703 0.191595 153 0 76
0.659787 0.561947 0.313895 153 76 0
-0.318456 -0.490982 0.284778 76 0 153
0.493314 0.242713 0.343011 127 127 0
-0.467801 -0.021630 0.338765 255 0 0
-0.277363 0.097124 0.338765 255 0 0
-0.137757 0.563628 0.284778 204 51 127
-0.700893 0.090749 -0.023500 76 0 153
-0.700893 0.601764 -0.222138 76 0 153
-0.681482 -0.112251 -0.093039 127 127 0
-0.432886 -0.677634 -0.384897 76 0 153
-0.642792 0.102005 -0.355780 153 76 0
-0.206261 -0.599290 -0.384897 76 0 153
-0.030293 0.180956 0.340587 255 0 0
0.193402 -0.234050 0.338765 127 127 0
-0.009272 0.256443 0.341315 255 0 0
0.219022 -0.169527 0.338765 127 127 0
0.482406 -0.496848 -0.295851 76 0 153
0.602062 0.462461 0.173680 153 0 76
-0.592092 -0.230327 0.313895 255 0 0
-0.568314 -0.060184 -0.355780 153 76 0
-0.558898 -0.074662 -0.187316 127 127 0
-0.596560 0.487282 0.116643 76 0 153
0.525996 -0.520948 0.284778 204 51 127
0.201956 -0.373275 0.315613 127 127 0
-0.374880 -0.068413 0.338765 255 0 0
-0.550170 0.432447 0.257046 0 0 255
0.510034 0.561044 0.288087 204 51 127
-0.176767 0.062587 -0.355780 153 76 0
-0.147255 -0.513229 -0.384897 76 0 153
-0.087581 -0.103778 0.248142 127 127 0
0.386533 -0.519659 0.313895 204 51 127
0.564790 0.488361 -0.355780 153 76 0
0.621710 0.418036 0.313895 153 76 0
-0.573685 -0.103778 -0.239056 127 127 0
0.448678 0.512075 -0.229610 204 51 127
0.588595 -0.074662 0.089389 127 127 0
0.677279 -0.716794 -0.334560 153 0 76
-0.095906 0.579695 0.313895 204 51 127
-0.103234 -0.496848 0.148744 76 0 153
0.640501 -0.496848 0.140612 153 0 76
0.613514 -0.472886 0.343011 127 127 0
0.677279 -0.492026 -0.009258 153 0 76
0.444013 -0.356923 0.338765 127 127 0
0.011988 0.485045 0.372296 76 0 153
-0.296515 -0.049962 0.315613 255 0 0
-0.700893 -0.475398 -0.278044 76 0 153
-0.355201 0.119837 0.338765 255 0 0
0.296655 -0.103778 -0.144986 127 127 0
0.422325 0.118941 -0.341222 153 76 0
0.357748 0.439727 0.182919 0 0 255
-0.386924 -0.103778 0.096826 127 127 0
0.549211 0.243747 0.343011 127 127 0
-0.221036 0.353028 0.313895 0 0 255
0.381423 -0.245793 -0.355780 153 76 0
0.298908 -0.134571 -0.355780 153 76 0
0.204121 -0.287474 0.315613 127 127 0
0.318659 -0.103778 -0.091725 127 127 0
-0.133689 0.108251 -0.341222 153 76 0
-0.411702 -0.581227 -0.384897 76 0 153
0.657868 0.231109 -0.134879 153 0 76
0.098371 0.461621 0.333818 153 76 0
-0.232027 0.468767 -0.200493 204 51 127
0.596677 -0.236511 0.343011 127 127 0
0.657868 0.378450 -0.198008 153 0 76
-0.290847 -0.691240 0.192577 76 153 0
-0.644266 0.366936 0.308602 153 76 0
-0.393491 -0.103778 -0.175401 127 127 0
0.639866 0.011131 0.313895 76 0 153
-0.139320 0.432447 0.114490 0 0 255
0.424151 -0.428484 0.343011 127 127 0
0.677279 0.491447 0.126563 153 0 76
-0.065823 0.439727 0.208563 0 0 255
0.420943 -0.496848 -0.047323 76 0 153
-0.681482 0.435039 -0.076180 76 0 153
-0.508060 -0.074662 -0.154066 127 127 0
-0.203119 0.589938 0.340840 153 76 0
0.524934 0.439727 0.229571 0 0 255
0.657868 0.513755 -0.118321 153 0 76
0.577296 -0.074662 0.268410 127 127 0
-0.006846 -0.429846 -0.355780 153 76 0
0.078201 0.439727 0.220297 0 0 255
0.360338 -0.103778 -0.202520 127 127 0
0.078241 0.439727 -0.146622 0 0 255
0.677279 0.221421 -0.189108 153 0 76
0.287479 0.400130 -0.355780 153 76 0
-0.461864 -0.496848 0.001889 76 0 153
-0.101652 0.439727 0.155472 0 0 255
0.156951 0.261029 -0.355780 153 76 0
-0.547308 0.060188 0.315613 255 0 0
0.657868 0.303100 -0.058267 153 0 76
0.319476 0.429208 0.313895 153 76 0
0.383656 0.031072 0.315613 127 127 0
0.068962 -0.103778 0.027878 127 127 0
