ply
format ascii 1.0
element vertex 1285
property float x
property float y
property float z
property uchar red
property uchar green
property uchar blue
end_header
0.136352 -0.001702 0.219799 0 0 255
-0.765523 0.013007 -0.026311 204 51 127
-0.229535 -0.001702 -0.195062 76 0 153
0.822808 0.013007 -0.021980 0 127 127
-0.312975 0.013007 -0.209578 76 153 0
0.804403 0.003201 -0.249242 0 255 0
-0.477028 -0.001702 -0.042123 127 127 0
-0.879128 -0.035900 0.368901 0 255 0
-0.043443 0.003201 0.347081 0 255 0
0.581181 -0.001702 -0.047327 255 0 0
-0.656628 0.013007 0.188522 153 0 76
0.758250 0.013007 -0.220307 0 255 0
-0.315455 0.003201 -0.347425 0 255 0
-0.088849 0.003201 -0.315623 0 255 0
0.891913 -0.001702 0.091830 76 153 0
-0.217860 0.013007 -0.038523 153 0 76
-0.908656 -0.027999 -0.327161 0 255 0
0.615974 0.003019 0.103494 0 127 127
-0.462751 0.003201 -0.381470 0 255 0
0.150813 0.013007 -0.078135 204 51 127
-0.673752 -0.001702 -0.014342 76 0 153
0.377490 0.003201 0.292730 0 255 0
-0.752988 0.012846 0.128272 127 0 127
0.752921 -0.001702 -0.212038 0 255 0
0.649886 -0.001702 -0.174694 153 0 76
-0.149215 -0.001702 -0.066275 127 127 0
0.798136 0.003201 -0.324013 0 255 0
0.613558 -0.001702 0.240709 76 0 153
0.740227 0.013007 0.110209 204 51 127
-0.348028 -0.001702 -0.083046 76 0 153
0.946666 -0.014222 0.118725 0 255 0
0.440730 -0.001702 0.044999 153 0 76
0.781294 0.013007 -0.210500 0 255 0
-0.445698 0.013007 0.246779 0 255 0
0.861119 0.013007 0.072166 76 153 0
0.946183 0.003201 0.086516 0 255 0
0.781275 -0.001702 -0.009068 255 0 0
-0.624420 -0.001702 -0.135783 76 0 153
0.121889 0.007555 -0.307010 0 127 127
0.242914 0.007920 -0.159667 127 0 127
-0.026870 -0.044927 0.368901 0 255 0
0.713106 0.003201 0.359491 0 255 0
0.419351 -0.001702 -0.101675 153 76 0
-0.329416 -0.041486 0.368901 0 255 0
0.152681 0.003201 0.357868 0 255 0
-0.060506 -0.001702 0.155608 0 0 255
0.683544 0.013007 -0.068515 0 255 0
0.189164 0.003201 0.318552 0 255 0
-0.741611 -0.001702 -0.222391 0 255 0
-0.395311 -0.001702 -0.015473 153 76 0
-0.137758 0.002254 -0.332117 0 255 0
0.730326 0.003201 -0.337158 0 255 0
-0.493713 0.010852 -0.014032 127 127 0
-0.815873 -0.001702 -0.092532 0 0 255
-0.205361 -0.001702 -0.102529 0 0 255
0.286166 -0.001702 0.251680 153 76 0
-0.014612 -0.001083 0.138277 0 0 255
0.773995 0.013007 -0.022670 255 0 0
-0.394485 0.013007 -0.208434 153 0 76
-0.163201 -0.001702 0.222056 0 255 0
0.744281 0.013007 0.020681 0 0 255
0.819612 0.013007 0.216595 153 0 76
-0.303580 0.013007 0.128210 76 0 153
-0.014062 -0.001702 0.053830 153 0 76
0.459375 0.013007 0.010277 153 0 76
-0.810510 -0.001702 0.189195 127 0 127
0.636009 -0.001702 -0.049340 0 255 0
-0.843266 -0.001702 -0.045758 204 51 127
0.736869 -0.001702 -0.225130 0 255 0
-0.526706 0.003201 -0.282044 0 255 0
-0.845026 -0.001702 0.024292 153 0 76
0.440568 -0.001702 0.241438 76 0 153
0.356197 0.000203 -0.178064 153 76 0
-0.439707 0.003201 -0.360865 0 255 0
-0.571187 -0.001702 0.224786 76 0 153
-0.107115 -0.001702 0.105934 0 0 255
0.282294 0.003201 -0.338927 0 255 0
0.815729 -0.001702 -0.214485 127 127 0
-0.592700 -0.001702 0.170169 0 255 0
-0.285582 -0.001702 -0.118248 204 51 127
0.508640 -0.012801 -0.382549 0 255 0
0.274067 -0.001702 0.102571 0 255 0
0.869125 -0.001702 0.078280 76 153 0
0.203425 0.008847 -0.082316 255 0 0
0.408949 0.013007 -0.062078 76 0 153
-0.892801 0.003201 -0.054279 0 255 0
-0.803164 0.013007 -0.079786 204 51 127
0.868876 0.013007 0.183062 153 0 76
-0.599076 0.013007 0.133204 0 255 0
0.070526 0.000286 0.005801 153 76 0
0.345383 -0.001702 -0.202530 76 0 153
0.883950 -0.001702 -0.170711 127 0 127
0.289427 -0.001702 0.204243 153 76 0
-0.364964 -0.001702 -0.109806 153 0 76
-0.380121 -0.001702 -0.144386 153 0 76
0.805484 -0.001702 -0.148222 127 0 127
-0.452353 -0.001702 -0.081124 127 127 0
0.753299 0.003201 0.278348 0 255 0
-0.908656 -0.027689 0.332900 0 255 0
-0.049129 0.003201 -0.352991 0 255 0
0.002831 0.013007 -0.139414 0 127 127
0.786525 0.003201 -0.284858 0 255 0
-0.062379 -0.001318 -0.234449 0 255 0
-0.561439 0.013007 -0.079111 153 0 76
0.930255 0.003201 0.057333 0 255 0
0.320548 0.013007 0.159580 76 0 153
0.495645 -0.045123 -0.382549 0 255 0
0.719131 0.013007 -0.228172 0 255 0
-0.249260 0.003201 0.358141 0 255 0
-0.815547 -0.001702 0.113680 127 0 127
0.116470 0.012912 -0.034762 204 51 127
-0.319257 0.013007 0.223730 0 255 0
0.266874 -0.001702 0.081221 76 153 0
0.011412 0.013007 0.133493 255 0 0
0.665341 -0.001702 -0.056494 0 255 0
-0.908656 -0.040521 -0.011158 0 255 0
-0.769160 -0.001702 -0.224945 0 255 0
-0.280450 -0.001702 0.017395 127 0 127
-0.669106 0.013007 -0.030348 76 0 153
0.316119 -0.001702 -0.073702 0 127 127
0.062395 0.009864 0.168327 255 0 0
0.542676 0.009780 -0.133363 0 0 255
0.770567 -0.001702 0.066676 0 0 255
-0.441134 0.013007 -0.127589 76 0 153
-0.795644 0.003201 -0.341777 0 255 0
-0.908656 -0.014625 -0.293389 0 255 0
-0.128761 -0.001702 -0.137211 0 255 0
0.340097 0.013007 -0.192815 76 0 153
-0.196870 0.003201 0.367770 0 255 0
0.225747 0.013007 -0.199699 0 0 255
0.270931 -0.034233 -0.382549 0 255 0
0.193146 0.013007 0.031479 153 0 76
-0.382650 0.013007 -0.189331 153 0 76
-0.781771 -0.001702 -0.086259 204 51 127
-0.437995 0.013007 0.206654 0 255 0
-0.135210 0.013007 0.139197 204 51 127
-0.496450 -0.002703 0.368901 0 255 0
0.131835 -0.001702 0.040810 153 0 76
0.855013 0.013007 0.223628 153 0 76
0.399190 -0.001702 0.227118 153 0 76
0.690004 -0.001702 -0.102850 153 0 76
0.681708 0.013007 -0.133858 153 0 76
-0.122249 -0.001702 0.201789 0 255 0
-0.149990 -0.001702 -0.148950 0 0 255
0.166449 0.013007 -0.070257 204 51 127
0.892272 0.003201 -0.256759 0 255 0
-0.807718 -0.001702 0.066553 153 0 76
0.406454 0.013007 -0.039303 76 0 153
0.193836 0.013007 -0.188320 0 0 255
0.342326 -0.001702 -0.052527 0 127 127
0.608468 -0.001702 -0.120807 0 0 255
-0.027814 0.013007 0.029198 153 0 76
0.629971 0.013007 0.236450 76 0 153
0.946666 -0.015747 0.147765 0 255 0
-0.908656 -0.009118 -0.252591 0 255 0
0.442656 0.013007 -0.224449 204 51 127
-0.588301 0.013007 0.072808 76 153 0
0.932693 0.003201 0.355112 0 255 0
0.594794 0.003201 -0.283761 0 255 0
-0.405419 -0.035277 -0.382549 0 255 0
-0.604648 0.003201 -0.306178 0 255 0
-0.386748 -0.001702 0.226311 0 255 0
-0.434969 -0.008603 -0.382549 0 255 0
-0.764551 0.012799 -0.209673 0 255 0
-0.177758 -0.001702 -0.158113 0 0 255
-0.284869 0.013007 0.066897 127 0 127
-0.282106 0.003201 -0.282322 0 255 0
0.331336 0.001759 -0.165471 153 76 0
0.599979 -0.001702 0.129563 0 127 127
0.596429 -0.001702 -0.218567 153 76 0
0.028451 -0.001702 -0.197688 153 0 76
0.929220 0.003201 0.165995 0 255 0
0.581118 -0.042612 -0.382549 0 255 0
-0.887212 0.003201 0.345795 0 255 0
-0.415506 0.011448 -0.153665 76 0 153
0.639412 -0.001702 -0.115829 153 0 76
0.041605 0.000136 -0.382549 0 255 0
0.091842 0.007709 -0.084564 153 76 0
-0.481914 0.008815 -0.149361 76 0 153
0.753444 0.003201 0.339161 0 255 0
0.797496 -0.001702 0.251008 153 0 76
-0.297539 -0.001702 -0.055861 76 0 153
-0.595527 0.013007 0.117416 0 255 0
-0.654686 0.013007 -0.194712 127 127 0
0.832371 0.003201 0.344469 0 255 0
0.509936 0.000125 0.159489 0 255 0
-0.509638 0.013007 -0.121863 0 255 0
0.704439 0.003201 -0.345131 0 255 0
0.825481 -0.012806 -0.382549 0 255 0
0.188172 0.003201 -0.347410 0 255 0
0.873271 0.013007 0.232531 153 0 76
0.645973 0.013007 0.200558 76 0 153
0.946666 -0.005726 -0.063520 0 255 0
-0.771471 -0.001702 0.061075 153 0 76
0.477479 -0.001702 -0.159961 153 76 0
0.566364 0.013007 -0.183352 153 76 0
-0.668086 0.003201 0.368636 0 255 0
0.840290 -0.007202 0.368901 0 255 0
-0.771684 0.003201 0.315476 0 255 0
-0.096505 -0.001702 0.042429 76 153 0
0.358060 0.010470 0.202570 153 0 76
-0.607014 0.003201 0.290560 0 255 0
-0.607056 -0.001702 0.211413 153 0 76
0.762952 -0.001702 -0.074652 255 0 0
0.611437 -0.001702 0.162567 0 127 127
0.044511 0.013007 0.045738 76 0 153
-0.113431 -0.001702 0.049935 76 153 0
-0.149848 0.001673 -0.382549 0 255 0
0.668985 -0.001702 -0.140679 153 0 76
0.210303 -0.001702 0.217302 204 51 127
0.500830 -0.022757 0.368901 0 255 0
-0.460414 0.009480 -0.102839 76 0 153
0.396228 -0.013916 -0.382549 0 255 0
0.593672 0.003201 -0.306899 0 255 0
0.038862 0.003201 -0.277376 0 255 0
-0.765828 -0.001702 -0.161759 0 0 255
0.343229 0.003201 -0.322443 153 0 76
0.604658 0.010774 0.005801 127 0 127
-0.068866 0.013007 -0.217086 76 0 153
0.041472 0.003201 -0.334544 127 0 127
0.109130 -0.001702 -0.062947 204 51 127
0.066855 0.003201 -0.281381 0 255 0
-0.573210 -0.001702 0.043034 76 153 0
-0.016458 0.012825 0.073943 153 0 76
-0.650571 0.013007 0.033182 0 127 127
-0.908656 -0.013217 -0.231898 0 255 0
-0.335894 0.003201 0.316271 0 255 0
-0.572968 0.013007 -0.045078 153 0 76
0.898719 -0.044376 -0.382549 0 255 0
0.083242 0.003201 0.298629 0 255 0
-0.689894 -0.001702 0.260784 0 127 127
0.155999 -0.001702 -0.062161 204 51 127
0.217426 -0.001702 -0.167789 0 0 255
-0.388745 -0.001702 0.089463 0 255 0
0.767314 -0.001702 0.246805 153 0 76
0.423980 0.013007 0.043812 153 0 76
-0.153849 0.013007 -0.134662 0 0 255
-0.357603 0.013007 -0.205072 153 0 76
0.773764 0.013007 0.026402 0 0 255
0.790323 0.010672 -0.084252 255 0 0
-0.600567 0.013007 -0.136112 76 0 153
0.785341 -0.001702 -0.224003 0 255 0
-0.536683 -0.000968 0.093040 76 153 0
0.024546 0.011592 -0.075361 153 76 0
-0.896195 0.003201 0.207951 0 255 0
0.751421 -0.043429 0.368901 0 255 0
-0.563124 -0.001702 -0.165598 0 255 0
-0.416021 0.003201 0.278341 0 255 0
-0.690580 0.013007 -0.030904 76 0 153
0.272593 -0.001702 0.194739 153 76 0
0.818107 0.013007 0.117818 153 0 76
-0.050118 -0.001702 -0.127019 127 0 127
-0.702938 -0.001702 -0.117111 153 76 0
-0.514301 0.012708 0.096508 255 0 0
0.358205 -0.001702 0.154297 153 0 76
0.569449 0.013007 0.032739 127 0 127
-0.141120 0.003201 0.287746 0 255 0
-0.213845 -0.001702 0.183104 0 255 0
0.854027 0.013007 0.039937 76 153 0
-0.510193 0.007560 0.262646 76 0 153
-0.098602 0.011928 -0.178064 127 0 127
0.847091 0.003201 0.322194 0 255 0
-0.308028 -0.034889 -0.382549 0 255 0
-0.029907 -0.001702 -0.028161 76 153 0
0.946666 -0.023348 -0.212401 0 255 0
-0.435667 -0.001702 0.236323 0 255 0
-0.253623 -0.001702 -0.130256 204 51 127
0.018244 0.013007 0.102737 255 0 0
0.059546 -0.001702 0.119342 255 0 0
0.309922 -0.001702 0.139330 76 0 153
0.214219 0.012718 0.255504 204 51 127
0.328488 0.003201 -0.265811 0 255 0
0.572454 -0.001702 -0.016744 255 0 0
0.011121 -0.001702 0.235573 0 255 0
-0.908656 -0.009638 0.335292 0 255 0
0.946666 -0.008950 -0.310927 0 255 0
-0.469638 -0.001702 0.245008 0 255 0
0.115701 0.012942 -0.231997 204 51 127
-0.851966 -0.011060 -0.382549 0 255 0
-0.191955 0.003201 -0.371483 0 255 0
0.826532 0.013007 0.050031 76 153 0
0.065381 0.013007 0.221809 255 0 0
0.250980 0.013007 -0.068965 255 0 0
0.244728 -0.001702 -0.005894 255 0 0
-0.717739 -0.032543 0.368901 0 255 0
-0.046973 0.013007 -0.036306 76 153 0
-0.607152 -0.001702 0.058697 0 127 127
-0.096001 -0.001702 -0.017825 127 127 0
-0.170901 0.012482 -0.200205 153 76 0
0.307581 0.003201 -0.315977 0 255 0
0.946666 -0.011897 0.096945 0 255 0
0.385483 0.003201 -0.300431 0 255 0
0.291618 0.013007 0.116626 76 0 153
0.850549 -0.001702 -0.078151 0 127 127
-0.076596 0.013007 0.024483 76 153 0
-0.031781 0.011787 -0.015327 76 153 0
-0.677975 -0.001702 0.114682 127 127 0
-0.364367 0.013007 0.222138 0 255 0
-0.653955 -0.013017 -0.382549 0 255 0
0.024972 0.011402 0.166619 255 0 0
0.605296 0.013007 -0.051096 255 0 0
0.826460 -0.001702 -0.052229 0 127 127
-0.812438 0.006580 -0.008117 204 51 127
0.577984 -0.001702 -0.128994 0 0 255
0.677695 0.013007 0.010911 127 127 0
0.483870 0.003201 -0.381854 0 255 0
0.670277 -0.001702 0.057442 127 127 0
0.077561 -0.001702 0.020414 76 0 153
-0.083050 -0.001702 0.120764 0 0 255
-0.225505 0.004612 -0.325886 255 0 0
0.416256 0.010362 0.129139 153 0 76
0.841171 -0.001702 0.104300 0 255 0
-0.446901 -0.000659 0.005801 127 0 127
-0.089228 0.012573 0.187215 0 255 0
-0.486690 0.003201 -0.237844 0 255 0
-0.749310 -0.001702 -0.021579 204 51 127
-0.171840 0.013007 0.154310 204 51 127
-0.123644 0.013007 0.097640 204 51 127
-0.847438 -0.034647 0.368901 0 255 0
-0.328256 0.009342 -0.102648 153 0 76
-0.637299 0.000904 -0.231997 0 255 0
0.587049 0.003201 -0.350253 0 255 0
-0.614402 -0.003092 0.368901 0 255 0
0.245609 0.003201 0.324571 0 255 0
0.865273 0.003201 -0.306711 0 255 0
0.226472 0.013007 0.226448 204 51 127
0.828299 0.013007 -0.227809 127 127 0
0.417257 0.013007 -0.159748 153 76 0
0.592284 0.013007 -0.174548 153 76 0
0.150642 0.013007 0.237271 0 0 255
0.900937 0.003201 -0.283101 0 255 0
0.934133 0.003201 -0.317865 0 255 0
0.783799 -0.001702 0.120456 204 51 127
-0.908656 -0.031948 -0.037408 0 255 0
-0.908656 -0.015583 -0.059325 0 255 0
-0.188935 0.013007 -0.109582 0 0 255
0.618774 0.003201 -0.370286 0 255 0
0.460274 -0.001702 0.034720 153 0 76
-0.846529 -0.001702 -0.131407 0 0 255
0.251720 0.013007 0.066621 76 153 0
-0.830989 0.003201 0.355266 0 255 0
-0.093526 0.011693 0.098110 0 0 255
-0.171312 0.011307 -0.223568 153 76 0
0.617532 -0.001702 -0.181410 153 76 0
-0.173954 0.003201 -0.358487 0 255 0
-0.057966 0.013007 0.234625 0 255 0
0.172297 0.013007 -0.210532 0 0 255
-0.072550 0.013007 0.115670 0 0 255
-0.267693 -0.001702 0.161041 153 0 76
-0.553323 -0.001702 -0.078458 153 0 76
-0.151616 0.013007 -0.217249 153 76 0
-0.213384 0.013007 0.026278 0 127 127
0.122469 -0.001702 0.010622 153 0 76
0.847431 0.013007 -0.139226 127 0 127
0.386821 -0.001702 -0.182912 153 76 0
0.280703 -0.001702 0.159707 76 0 153
0.436453 0.013007 -0.135794 153 76 0
0.310354 0.013007 0.241278 153 76 0
0.199473 -0.001702 0.236088 204 51 127
-0.618963 0.011807 0.067913 0 127 127
0.203788 0.013007 -0.157137 0 0 255
0.946666 0.001940 -0.147505 0 255 0
0.334483 -0.001702 0.134296 76 0 153
-0.149797 -0.001702 -0.039169 127 127 0
-0.692408 -0.001702 -0.138404 153 76 0
-0.132282 -0.036470 -0.382549 0 255 0
-0.656891 -0.001702 0.046896 0 127 127
0.160701 -0.001702 0.189636 0 0 255
-0.170116 0.013007 0.216367 0 255 0
0.868681 0.003201 0.342968 0 255 0
-0.806859 0.013007 0.201562 76 153 0
-0.803310 0.013007 -0.189672 255 0 0
-0.361291 0.003201 0.285736 0 255 0
-0.031211 -0.027250 -0.382549 0 255 0
0.226406 0.003257 0.087190 76 153 0
0.069167 0.013007 -0.147395 76 0 153
-0.908656 -0.042020 -0.233716 0 255 0
0.006653 0.013007 -0.174582 153 0 76
0.443173 0.001898 0.368901 0 255 0
0.145425 -0.001702 0.018122 153 0 76
-0.182374 -0.001702 -0.010390 153 0 76
-0.554341 0.013007 -0.206051 127 0 127
0.454301 0.003201 -0.347965 0 255 0
-0.287900 0.010501 0.258574 0 255 0
-0.345297 0.010132 0.071131 127 127 0
0.540982 -0.001702 -0.219591 153 76 0
0.083336 0.013007 -0.127583 76 0 153
0.016376 -0.000590 -0.175612 0 127 127
0.903593 0.003201 0.144420 0 255 0
-0.069315 0.008176 -0.020731 76 153 0
-0.476638 -0.001702 -0.014633 127 127 0
0.249827 0.003345 0.119418 0 255 0
-0.570511 0.012150 0.205608 76 0 153
0.721004 -0.001702 0.198332 153 0 76
0.243662 -0.001702 0.187285 204 51 127
-0.642661 -0.001702 -0.003006 76 0 153
0.097518 0.003201 0.321454 0 255 0
-0.088029 0.003201 0.368098 0 255 0
-0.479364 0.003201 0.348268 0 255 0
-0.276534 0.013007 0.243926 0 255 0
0.325441 -0.001702 0.214189 153 76 0
-0.772834 0.003201 0.280841 76 153 0
-0.282093 0.003201 0.303056 0 255 0
-0.283035 -0.042240 0.368901 0 255 0
0.599106 0.013007 0.112240 0 127 127
0.196219 -0.027775 -0.382549 0 255 0
-0.825519 -0.001702 0.163501 127 0 127
-0.369289 0.013007 -0.134809 153 0 76
0.156659 -0.001702 0.221811 0 0 255
0.597141 0.013007 -0.112040 0 0 255
-0.085512 -0.001702 0.235556 0 255 0
0.087085 0.013007 0.016591 76 0 153
0.278230 0.003201 0.321619 0 255 0
-0.351752 0.013007 0.103208 76 0 153
0.575588 -0.001702 0.133160 0 127 127
-0.761681 0.001581 0.246065 0 255 0
-0.379318 -0.001702 0.018804 127 127 0
0.777594 -0.001702 0.262769 153 0 76
-0.237303 -0.001702 0.005952 153 0 76
-0.520664 0.007027 -0.181298 127 0 127
-0.836925 0.003201 -0.382462 0 255 0
-0.406630 0.003201 -0.254618 0 255 0
-0.697810 -0.001702 0.184262 0 127 127
-0.313615 0.013007 0.061560 127 0 127
-0.514705 -0.001702 -0.007155 127 127 0
-0.640027 -0.001702 0.248021 153 0 76
0.294869 -0.001702 -0.002630 0 255 0
0.812663 0.007469 -0.164354 127 0 127
0.031037 -0.001702 0.078086 153 0 76
0.299073 0.013007 -0.157115 127 0 127
0.475520 -0.001702 -0.012349 76 0 153
-0.095037 -0.001702 0.173178 0 0 255
-0.634140 -0.001702 -0.166347 76 0 153
-0.593785 0.007003 0.239344 153 0 76
-0.495790 -0.029858 0.368901 0 255 0
-0.668405 0.000076 0.273009 153 0 76
-0.158433 -0.001702 -0.175469 0 0 255
0.768935 0.013007 -0.046819 255 0 0
-0.908656 -0.044558 -0.065657 0 255 0
-0.294911 0.013007 -0.170341 204 51 127
-0.175031 0.003201 -0.342389 0 255 0
0.871747 0.013007 0.138396 153 0 76
-0.382471 -0.001702 -0.226024 153 0 76
0.254813 0.003201 -0.329907 76 153 0
0.727406 0.013007 -0.048742 255 0 0
0.052847 0.003201 -0.360785 0 255 0
-0.491483 -0.001702 0.119036 255 0 0
0.737024 0.010840 -0.014016 255 0 0
0.271435 -0.001702 -0.020301 255 0 0
0.758941 0.013007 -0.188350 0 255 0
-0.610446 -0.001702 0.113326 0 255 0
0.639138 -0.001702 0.180015 76 0 153
-0.524520 0.003201 -0.322717 0 255 0
0.212113 0.012273 -0.231997 0 0 255
0.401131 0.013007 -0.175213 76 0 153
0.176163 0.011354 0.222588 0 0 255
0.750772 0.003201 -0.250071 0 255 0
-0.263927 0.000547 -0.185209 76 153 0
0.780202 -0.001702 -0.169487 204 51 127
0.170938 -0.042362 0.368901 0 255 0
-0.048140 0.013007 -0.195008 76 0 153
0.167626 0.003201 -0.381258 0 255 0
0.929549 0.003201 -0.098418 0 255 0
0.815270 0.003201 -0.375303 0 255 0
0.374867 -0.044049 0.368901 0 255 0
0.465895 0.013007 -0.029972 76 0 153
0.459692 0.013007 0.217489 76 0 153
-0.723060 -0.001702 0.157544 127 127 0
-0.245405 0.013007 -0.182874 204 51 127
0.238382 -0.001702 -0.187979 0 0 255
0.752477 0.013007 0.149553 204 51 127
-0.223072 -0.001702 -0.075478 153 0 76
0.175232 0.013007 -0.124896 0 0 255
-0.429919 -0.033950 -0.382549 0 255 0
-0.773970 -0.001702 0.128001 127 0 127
0.374170 0.008327 0.170877 153 0 76
-0.839763 -0.013649 0.368901 0 255 0
-0.182789 0.003201 0.326838 0 255 0
-0.624193 -0.001702 0.166109 0 255 0
0.429143 -0.001702 -0.067946 76 0 153
0.469679 0.003201 0.281838 0 255 0
0.123300 -0.001702 0.124225 0 255 0
0.571903 -0.044592 0.368901 0 255 0
0.411529 0.013007 -0.119858 153 76 0
0.575531 -0.001702 -0.179632 153 76 0
-0.160831 0.013007 -0.166186 0 0 255
-0.293730 -0.001702 -0.135918 204 51 127
-0.819404 -0.012687 -0.382549 0 255 0
0.433212 0.003201 -0.279166 0 255 0
0.013499 0.013007 -0.198227 153 0 76
0.141165 0.003201 -0.262849 0 255 0
-0.546466 0.013007 0.052435 76 153 0
-0.783965 -0.001702 -0.027473 204 51 127
0.946666 -0.016796 0.207478 0 255 0
-0.738942 0.013007 0.189391 0 127 127
-0.768380 0.013007 0.044983 153 0 76
-0.336756 0.007626 -0.009565 76 0 153
0.703882 -0.001658 -0.231997 0 255 0
-0.500456 -0.001702 0.013329 127 0 127
0.578169 0.010225 0.244793 153 76 0
0.069328 0.013007 0.198368 255 0 0
0.640451 -0.001702 0.241814 76 0 153
-0.528777 -0.001702 0.001026 76 153 0
-0.109461 -0.000422 0.273698 0 255 0
0.791850 0.009018 0.165607 204 51 127
-0.220157 0.012802 0.073974 0 127 127
0.606307 -0.001702 0.193250 76 0 153
-0.004604 0.013007 0.223438 0 255 0
0.014351 0.003057 0.087467 255 0 0
0.162789 -0.001702 0.154250 0 255 0
-0.539090 0.004955 0.266252 76 0 153
-0.022952 0.000806 0.090584 153 0 76
0.946666 -0.017678 -0.272219 0 255 0
0.184334 0.006581 0.082588 153 0 76
-0.302050 -0.001702 -0.040129 76 0 153
-0.908656 -0.008349 0.108959 0 255 0
-0.621529 0.013007 0.008406 0 127 127
-0.426033 0.013007 0.124474 153 76 0
0.823632 -0.001702 0.091177 76 153 0
-0.682065 0.003201 -0.251794 0 255 0
-0.322718 0.012331 -0.084905 76 0 153
0.014285 -0.001702 0.172248 255 0 0
0.006924 0.002964 -0.290379 0 255 0
-0.038358 0.003201 -0.256986 0 255 0
-0.845928 -0.000644 0.092591 153 0 76
0.946666 -0.028678 -0.158399 0 255 0
0.361591 0.013007 -0.119379 153 76 0
-0.392173 -0.001702 0.125046 153 76 0
0.018329 0.003201 -0.356830 0 255 0
0.429895 0.013007 -0.078759 76 0 153
0.237619 -0.001702 0.202321 204 51 127
-0.346472 0.003201 -0.257035 0 255 0
-0.806161 0.013007 0.237505 76 153 0
-0.314565 0.003201 0.352424 0 255 0
-0.908656 -0.042247 0.044998 0 255 0
-0.716560 0.013007 0.228345 0 127 127
-0.616466 -0.001702 0.041830 0 127 127
0.113320 0.002818 -0.337826 0 255 0
0.616168 0.011520 -0.202318 153 76 0
-0.748402 0.013007 -0.078562 204 51 127
0.409099 -0.030703 0.368901 0 255 0
-0.005695 -0.001702 0.212341 0 255 0
-0.053203 -0.001702 -0.182834 76 0 153
0.458720 0.013007 0.048951 153 0 76
0.784128 0.003201 -0.240828 0 255 0
0.946666 -0.022183 0.015757 0 255 0
0.678683 -0.001702 0.129000 76 0 153
0.097510 0.013007 0.244554 255 0 0
0.712263 0.003201 -0.374182 0 255 0
0.655288 0.013007 0.046185 127 127 0
0.592440 -0.001702 0.103488 0 127 127
-0.642283 -0.001702 0.076354 0 127 127
0.383663 0.013007 0.030081 153 0 76
-0.079576 0.003527 0.268230 0 255 0
-0.079652 -0.001702 -0.074099 76 153 0
-0.446827 -0.001702 -0.030677 127 127 0
-0.665501 0.007510 0.233154 153 0 76
-0.146876 0.002232 0.055587 76 153 0
-0.641830 0.007290 0.142884 0 255 0
0.888364 0.002727 -0.119775 127 0 127
0.199716 0.009296 0.061999 153 0 76
-0.083605 -0.001702 0.033357 76 153 0
-0.790624 -0.001702 0.191739 76 153 0
-0.507818 -0.032213 -0.382549 0 255 0
0.130554 0.009477 -0.149278 76 0 153
-0.125427 0.003201 0.341007 0 255 0
-0.260909 0.003201 -0.239837 0 255 0
0.309688 0.001421 0.043050 0 255 0
-0.908656 -0.015971 0.275126 0 255 0
0.254881 -0.001702 0.167562 76 0 153
0.733215 -0.001702 0.179587 204 51 127
0.369342 0.013007 -0.181581 153 76 0
-0.326434 -0.001702 0.236153 0 255 0
0.550477 0.003201 0.320577 0 255 0
-0.053437 -0.016374 -0.382549 0 255 0
0.398959 -0.001702 0.273222 153 0 76
-0.574763 0.012259 0.154824 0 255 0
-0.325021 -0.001702 -0.144967 153 0 76
0.318659 0.012790 0.096508 76 0 153
0.265646 0.013007 -0.131730 127 0 127
-0.341009 0.013007 0.198364 0 255 0
-0.743395 0.003661 -0.004076 204 51 127
-0.178346 -0.001702 -0.101192 0 0 255
0.725342 -0.001702 0.089218 0 0 255
-0.474461 -0.001702 0.230434 0 255 0
-0.529551 -0.001702 0.071562 76 153 0
-0.069463 -0.001702 -0.001911 0 255 0
0.416617 0.006122 -0.310796 76 0 153
0.352439 0.003577 0.243376 153 0 76
-0.128632 0.010612 0.258419 0 255 0
0.030605 0.003201 -0.310985 127 0 127
0.879347 0.012418 0.005801 76 153 0
-0.188193 -0.001702 -0.130679 0 0 255
0.641550 0.013007 -0.021901 0 255 0
-0.400823 0.013007 0.235674 0 255 0
0.047351 0.013007 0.100802 255 0 0
-0.563605 0.003201 -0.250631 0 255 0
-0.342603 0.003201 0.368636 0 255 0
-0.188657 0.013007 -0.068865 153 0 76
0.548858 -0.040609 -0.382549 0 255 0
0.451677 -0.025085 0.368901 0 255 0
0.236880 -0.001702 -0.221635 0 0 255
0.349684 -0.001702 0.055024 153 0 76
0.455908 0.001497 -0.234449 0 255 0
0.819986 -0.001702 0.026216 76 153 0
0.382177 -0.001702 0.013973 153 0 76
0.252203 -0.001702 0.250538 204 51 127
0.123080 -0.001702 -0.116352 76 0 153
-0.460670 -0.001702 -0.203556 0 127 127
0.741868 0.013007 -0.231796 0 255 0
-0.601538 -0.001702 -0.004799 153 0 76
0.368737 0.003201 -0.337867 0 255 0
-0.698614 0.003201 0.349446 0 255 0
-0.542580 0.013007 -0.124980 0 255 0
-0.133005 -0.001702 -0.184876 153 76 0
0.365864 0.003201 -0.309289 153 0 76
-0.538701 -0.001702 -0.184520 127 0 127
0.595420 -0.001702 0.162137 0 127 127
-0.081832 0.013007 0.148704 0 0 255
0.744851 -0.001702 0.160016 204 51 127
0.646843 -0.031255 -0.382549 0 255 0
0.849151 -0.001702 0.153165 153 0 76
0.089123 0.003201 -0.300742 0 127 127
0.646150 0.003201 -0.268715 0 255 0
0.424699 0.000008 0.258551 153 0 76
0.276793 0.013007 0.018778 76 153 0
0.243895 0.013007 -0.053969 255 0 0
-0.340718 -0.001702 0.109754 76 0 153
-0.000347 0.013007 0.190240 0 255 0
-0.385097 -0.001702 0.182757 0 255 0
0.372039 -0.001702 0.125494 153 0 76
0.739452 -0.001702 -0.182915 0 255 0
0.781881 -0.001702 -0.061968 255 0 0
-0.628228 -0.001702 0.141546 0 255 0
-0.448388 -0.001702 0.071279 127 0 127
0.359261 0.010383 -0.013383 0 127 127
-0.845953 0.007503 -0.102799 0 0 255
0.654476 0.013007 -0.162231 153 0 76
-0.687764 -0.001702 0.045091 0 127 127
-0.409011 -0.010312 -0.382549 0 255 0
-0.620830 0.013007 0.203563 153 0 76
0.346484 -0.000667 -0.234449 76 0 153
-0.761158 0.003201 -0.348477 0 255 0
0.177704 -0.001702 0.031050 153 0 76
-0.613253 0.003201 0.312328 0 255 0
-0.522302 0.011707 -0.222007 127 0 127
-0.400314 -0.001702 0.044264 127 127 0
0.666760 0.013007 0.130064 76 0 153
0.331517 -0.001702 -0.195427 0 255 0
0.361076 0.010837 -0.046219 0 127 127
0.683906 -0.001702 -0.008806 0 255 0
0.815362 0.003201 0.357118 0 255 0
0.058492 -0.001702 0.136022 255 0 0
-0.272030 0.003201 0.355295 0 255 0
0.728114 -0.001702 0.110001 204 51 127
-0.908656 -0.010070 0.001385 0 255 0
0.691767 -0.001702 -0.025930 0 255 0
0.814740 0.009668 -0.084905 0 127 127
0.637740 -0.001702 0.099809 127 127 0
-0.721974 0.005699 -0.076176 204 51 127
-0.723228 -0.001702 0.019260 153 0 76
-0.892407 0.003201 -0.192696 0 255 0
0.520171 -0.001702 0.110125 0 255 0
-0.691841 -0.001702 0.198433 0 127 127
0.342364 0.003201 0.350067 0 255 0
0.901366 0.003201 -0.190958 0 255 0
0.053188 -0.001702 -0.225231 153 0 76
-0.527425 0.013007 0.120376 255 0 0
0.946666 -0.024234 -0.368044 0 255 0
0.102782 -0.001702 0.146976 0 255 0
-0.843303 -0.001702 0.059648 153 0 76
-0.779638 0.011813 0.187357 76 153 0
-0.596809 -0.014362 -0.382549 0 255 0
-0.698556 -0.034732 -0.382549 0 255 0
-0.599831 -0.001702 -0.032656 153 0 76
0.321487 -0.015884 -0.382549 0 255 0
-0.207447 -0.001702 0.145138 153 0 76
-0.225881 0.013007 0.112650 153 0 76
0.153627 0.013007 -0.046019 204 51 127
0.423761 0.013007 0.005842 153 0 76
-0.713707 0.013007 0.068923 153 0 76
0.946666 -0.028488 0.193214 0 255 0
0.082073 0.008207 -0.224734 204 51 127
-0.684305 0.003201 0.299787 0 255 0
-0.705894 0.013007 0.157567 127 127 0
-0.005420 -0.001702 0.029191 153 0 76
-0.541424 0.005888 -0.028256 153 0 76
-0.118820 0.013007 0.205823 0 255 0
-0.025987 -0.001702 0.018261 153 0 76
0.058574 0.003709 0.267978 255 0 0
-0.383891 0.013007 0.244001 0 255 0
0.263481 -0.001702 0.029302 76 153 0
-0.375036 0.013007 -0.170973 153 0 76
0.670530 0.012790 0.187215 76 0 153
0.141183 -0.005034 -0.382549 0 255 0
0.132919 -0.001702 0.069000 153 0 76
0.039455 0.013007 0.141356 255 0 0
-0.800208 -0.001702 -0.201591 255 0 0
-0.685897 -0.001702 -0.124678 153 76 0
0.537136 0.011663 -0.227258 153 76 0
0.307850 0.003201 -0.249636 0 255 0
0.946666 -0.023472 -0.302223 0 255 0
-0.384316 0.008323 0.005801 127 127 0
0.915371 0.003201 0.089850 0 255 0
0.355610 0.007467 0.219027 153 0 76
-0.898241 0.003201 0.014519 0 255 0
0.693743 0.003201 -0.250956 0 255 0
0.195417 0.003201 -0.369639 0 255 0
-0.233597 0.010911 -0.133252 204 51 127
-0.602113 -0.001702 0.248567 153 0 76
0.470658 -0.027470 -0.382549 0 255 0
0.463244 0.003201 -0.296127 0 255 0
0.500696 0.013007 -0.205211 204 51 127
0.072439 -0.001702 -0.038039 153 76 0
-0.899809 -0.009074 0.368901 0 255 0
0.476149 -0.012499 0.368901 0 255 0
-0.163226 0.003201 0.300475 0 255 0
-0.351381 0.008063 -0.183973 153 0 76
-0.133858 0.010742 -0.084905 127 127 0
0.380072 -0.001702 0.099267 153 0 76
0.761594 -0.001702 -0.019491 255 0 0
0.713188 0.003201 -0.286907 0 255 0
-0.692662 0.011937 -0.084905 76 0 153
-0.655794 0.003201 -0.248989 0 255 0
0.436381 0.003201 0.309612 0 255 0
-0.284895 -0.001702 -0.234344 0 255 0
-0.908656 -0.010510 0.040048 0 255 0
-0.381392 -0.007030 -0.382549 0 255 0
0.031827 -0.001702 -0.066221 153 76 0
-0.220882 -0.001702 0.265290 0 255 0
-0.485632 -0.001702 -0.029649 127 127 0
-0.773239 -0.001702 -0.148396 0 0 255
-0.647087 0.013007 -0.228826 127 127 0
0.418441 0.007683 0.201008 153 0 76
-0.320051 -0.001702 0.193075 0 255 0
-0.367159 0.010054 0.116317 76 0 153
0.530127 -0.001702 -0.138001 0 255 0
-0.528615 0.013007 -0.199855 127 0 127
0.154706 0.013007 0.209897 0 0 255
-0.103333 0.003201 0.356332 0 255 0
0.856074 0.013007 -0.084866 0 127 127
-0.410136 -0.001702 0.104914 153 76 0
-0.735103 -0.012495 -0.382549 0 255 0
-0.499427 0.013007 0.042649 127 0 127
0.138124 -0.001702 -0.043259 204 51 127
-0.749864 0.003201 0.329765 0 255 0
-0.227294 0.003201 -0.358337 0 255 0
-0.673893 0.013007 -0.207080 127 127 0
0.270176 0.013007 -0.202413 153 0 76
0.299983 -0.026119 0.368901 0 255 0
0.174339 -0.001702 -0.050223 204 51 127
-0.908656 -0.024647 0.193344 0 255 0
-0.351769 -0.001702 0.188624 0 255 0
-0.299526 0.003201 -0.301380 0 255 0
0.762677 -0.041115 -0.382549 0 255 0
-0.213997 0.004262 -0.143549 0 0 255
-0.908656 -0.014245 0.057039 0 255 0
0.394218 0.013007 0.054738 153 0 76
-0.312911 -0.001702 0.265289 0 255 0
0.321307 -0.001702 -0.041470 0 127 127
0.156733 0.013007 0.060241 153 0 76
-0.024317 -0.001702 -0.198500 76 0 153
-0.480118 0.003201 -0.279241 0 255 0
-0.380197 -0.030870 0.368901 0 255 0
0.877094 -0.001702 -0.047126 0 127 127
-0.079770 0.003201 0.312896 0 255 0
0.814009 0.003201 -0.295836 0 255 0
-0.587246 -0.001702 0.017521 76 153 0
-0.777839 -0.001702 -0.211298 0 255 0
-0.751056 0.001162 -0.382549 0 255 0
0.923433 0.003201 -0.303555 0 255 0
-0.001427 -0.001702 0.117359 255 0 0
0.394998 -0.001702 0.003079 76 0 153
0.637948 0.013007 0.052640 127 127 0
0.378179 0.013007 0.238058 153 0 76
0.774713 0.013007 -0.120843 204 51 127
0.754777 0.013007 -0.067573 255 0 0
-0.014479 0.013007 -0.227698 76 0 153
-0.862988 0.003201 0.041060 153 0 76
0.497572 -0.001702 0.216026 76 0 153
-0.335206 -0.001702 0.254013 0 255 0
0.109917 -0.001702 -0.164293 76 0 153
-0.594537 0.007817 0.215231 153 0 76
-0.020750 -0.001702 -0.122361 0 127 127
-0.508197 0.010710 0.187215 76 0 153
0.391659 0.003201 -0.265080 0 255 0
0.625147 0.000858 0.051114 127 127 0
0.946666 -0.007337 0.253370 0 255 0
0.223888 0.013007 0.209228 204 51 127
0.046000 0.012188 0.074824 76 0 153
0.401067 -0.001702 0.079221 153 0 76
0.917378 0.003201 -0.047249 0 255 0
-0.193433 -0.028479 0.368901 0 255 0
0.881601 -0.001702 -0.212997 127 127 0
-0.120170 0.012860 -0.016812 127 127 0
0.085234 0.012408 0.074520 76 0 153
-0.646276 0.013007 0.219889 153 0 76
0.675765 0.008819 0.170196 76 0 153
0.741618 0.013007 -0.040470 255 0 0
0.863164 0.013007 -0.029662 0 127 127
0.001893 0.003201 0.310709 0 255 0
0.421405 -0.021853 0.368901 0 255 0
0.524759 -0.001702 0.039320 0 255 0
0.820290 -0.017231 0.368901 0 255 0
0.477258 -0.001702 -0.221126 204 51 127
-0.490112 -0.001702 0.167537 255 0 0
-0.108583 -0.001702 0.248155 0 255 0
-0.017707 -0.001702 -0.082515 76 153 0
0.641501 -0.001702 0.156799 76 0 153
-0.096807 0.003201 0.323259 0 255 0
-0.507521 -0.001702 -0.186825 0 127 127
0.179950 -0.001702 0.101031 127 127 0
0.882609 -0.001702 -0.090598 127 0 127
0.285864 -0.001702 -0.140577 127 0 127
0.876626 0.013007 0.104100 153 0 76
0.524777 0.003201 0.335095 0 255 0
-0.642140 0.013007 -0.027683 76 0 153
0.522447 -0.001702 -0.060909 0 255 0
-0.330377 -0.000029 0.089602 127 0 127
0.682508 -0.001702 0.243083 76 0 153
0.252996 0.012971 0.209245 204 51 127
0.198896 -0.001702 -0.029950 255 0 0
0.210224 -0.004268 0.368901 0 255 0
-0.626340 0.013007 0.234422 153 0 76
0.346490 -0.029982 0.368901 0 255 0
0.817533 0.012745 0.198009 153 0 76
-0.084785 0.013007 0.255036 0 255 0
-0.421665 0.013007 -0.123374 76 0 153
-0.165640 0.003201 -0.330007 0 255 0
0.690295 -0.001702 -0.074563 0 255 0
-0.585082 0.003201 0.302787 0 255 0
-0.031714 -0.001702 0.059020 153 0 76
0.866402 0.000150 0.277922 153 0 76
-0.562799 -0.001702 0.115713 255 0 0
0.581246 -0.001702 0.219953 153 76 0
0.791919 0.008943 0.101585 204 51 127
-0.525331 -0.001702 -0.134606 0 255 0
0.188747 -0.001702 0.151525 127 127 0
-0.345858 0.012769 0.164727 76 0 153
0.585645 0.008753 -0.101833 0 0 255
0.368938 -0.001702 0.242132 153 0 76
-0.543220 -0.001702 -0.158690 0 255 0
-0.607633 0.013007 -0.201078 127 127 0
-0.298575 -0.001702 0.026280 127 0 127
-0.526714 0.003201 0.351753 0 255 0
0.911743 0.003201 0.294894 0 255 0
0.311722 -0.001702 0.208107 153 76 0
-0.616282 0.009651 -0.103077 76 0 153
0.245074 -0.011179 -0.382549 0 255 0
-0.070444 -0.001702 0.063551 76 153 0
0.099701 0.013007 -0.205924 204 51 127
0.043286 -0.001702 0.018128 76 0 153
-0.384882 0.003201 0.287227 0 255 0
0.651657 0.003201 0.291671 0 255 0
0.939476 0.003201 0.072627 0 255 0
0.664452 -0.001702 0.115107 76 0 153
-0.089816 0.004438 -0.005151 127 127 0
0.946666 0.001630 0.278163 0 255 0
0.697471 0.000955 0.090377 127 127 0
0.695057 0.003201 0.307297 0 255 0
-0.855621 -0.001702 -0.234201 0 255 0
-0.086674 -0.001702 0.092988 76 153 0
-0.195671 -0.001702 0.249025 0 255 0
0.213071 -0.001702 0.033824 153 0 76
-0.279099 -0.001702 0.134216 153 0 76
-0.632947 0.003201 -0.286792 0 255 0
-0.546002 0.008034 0.171283 255 0 0
-0.504197 0.008216 0.210838 76 0 153
0.442606 -0.001702 0.116651 76 153 0
0.769419 -0.001702 -0.226953 0 255 0
-0.188443 0.013007 -0.166440 0 0 255
-0.767227 -0.000583 -0.094932 0 0 255
-0.144480 -0.033665 0.368901 0 255 0
0.838744 0.006509 -0.084905 0 127 127
-0.888315 0.003201 -0.284290 0 255 0
0.545875 0.013007 0.216987 153 76 0
-0.058852 0.003201 0.292165 0 255 0
-0.519789 -0.001702 -0.148918 0 255 0
0.009490 0.013007 0.068528 153 0 76
0.080569 0.002920 -0.178064 204 51 127
-0.612759 -0.001702 -0.195529 127 127 0
-0.027346 -0.001702 -0.106963 0 127 127
0.010658 -0.001702 0.052660 153 0 76
0.274622 0.013007 0.120618 76 0 153
-0.571139 0.013007 -0.199398 127 0 127
0.440631 0.006553 -0.098787 153 76 0
0.326461 0.008661 0.261121 153 76 0
-0.592354 0.006502 -0.165290 76 0 153
-0.634718 0.013007 0.164077 0 255 0
0.566535 0.003201 -0.298223 0 255 0
-0.856841 -0.001702 0.111296 0 255 0
0.194541 0.003201 0.358652 0 255 0
-0.588191 -0.001702 -0.232005 127 0 127
0.439776 0.013007 -0.051348 76 0 153
-0.007256 0.010024 -0.103593 0 127 127
0.251012 -0.001702 -0.144825 127 0 127
0.538873 0.005661 0.045210 127 0 127
0.202892 0.003201 -0.344687 0 255 0
-0.135485 -0.001702 -0.029886 127 127 0
-0.254049 0.013007 0.142596 153 0 76
0.373985 -0.001702 -0.212975 76 0 153
0.238726 0.011590 -0.231997 0 0 255
-0.325487 0.013007 -0.198958 76 153 0
-0.249054 0.003201 -0.270127 0 255 0
-0.024581 0.003201 0.324773 0 255 0
0.338794 0.013007 0.009348 153 0 76
0.346833 0.013007 0.061150 153 0 76
-0.038291 -0.001702 0.139969 0 0 255
0.686691 -0.001702 0.277377 0 255 0
0.139504 0.013007 0.111204 0 255 0
0.868031 -0.001702 -0.231635 127 127 0
-0.062058 -0.001702 0.216231 0 255 0
0.946666 -0.043375 0.224894 0 255 0
-0.237332 -0.042855 0.368901 0 255 0
0.272058 -0.001702 0.258129 153 76 0
-0.676173 -0.001702 0.060403 0 127 127
-0.738959 -0.001702 -0.175361 153 76 0
0.078960 -0.001702 0.054426 76 0 153
-0.258232 -0.042898 -0.382549 0 255 0
-0.156735 0.013007 0.231123 0 255 0
0.926339 -0.026525 -0.382549 0 255 0
-0.481005 -0.001702 0.072538 127 0 127
-0.462652 -0.001702 -0.160055 76 0 153
-0.442739 -0.001702 -0.068414 127 127 0
-0.355283 0.003201 0.328707 0 255 0
0.446338 0.006792 -0.084905 76 0 153
0.292034 0.013007 -0.231417 153 0 76
-0.669518 -0.001702 -0.068135 76 0 153
-0.762095 0.001132 0.225365 0 127 127
0.557768 0.013007 -0.171157 0 0 255
-0.067590 0.013007 0.140530 0 0 255
0.663769 -0.001702 0.246640 76 0 153
0.536070 0.003201 0.354149 0 255 0
-0.482046 0.003201 0.285119 0 255 0
0.540135 0.013007 0.248988 153 76 0
-0.023871 0.003201 -0.340804 0 255 0
-0.766732 -0.001702 0.097320 153 0 76
-0.175456 -0.001702 0.095101 204 51 127
-0.717113 -0.000659 0.183320 127 127 0
0.418552 0.000110 0.272961 153 0 76
-0.017964 0.013007 0.209021 0 255 0
-0.533002 0.003201 -0.253207 0 255 0
0.140166 -0.000936 -0.155003 0 0 255
-0.584775 -0.026751 0.368901 0 255 0
-0.117964 -0.001702 -0.068063 127 127 0
0.679355 -0.006639 0.368901 0 255 0
0.068176 0.013007 0.253386 255 0 0
0.116453 0.013007 0.163622 0 255 0
0.758591 -0.001702 0.196250 153 0 76
0.324331 -0.001702 0.242464 153 76 0
-0.734293 0.013007 0.053503 153 0 76
0.136917 -0.001702 -0.224604 204 51 127
-0.716836 -0.001702 0.050238 153 0 76
-0.145929 0.003201 -0.351167 0 255 0
0.651164 0.013007 -0.065450 0 255 0
-0.827269 0.013007 0.199822 76 153 0
-0.160123 0.008066 -0.054081 127 127 0
0.374238 -0.001702 0.262850 153 0 76
-0.411704 0.010132 0.061083 127 127 0
-0.804486 -0.001702 0.222696 76 153 0
-0.242403 0.013007 -0.027193 153 0 76
-0.817859 -0.001702 0.043400 153 0 76
0.478103 -0.001702 -0.082425 153 76 0
0.467902 -0.001702 0.223712 76 0 153
-0.550770 0.012832 -0.175612 127 0 127
-0.637484 -0.037713 0.368901 0 255 0
-0.410350 0.011599 0.009377 127 127 0
-0.488799 -0.001702 -0.086837 127 127 0
0.299955 0.013007 0.151225 76 0 153
0.929498 0.003201 -0.183928 0 255 0
0.853175 -0.001702 -0.173243 127 0 127
0.597141 0.013007 0.145823 0 127 127
0.691683 0.013007 -0.187886 76 0 153
-0.672225 -0.001702 0.170424 127 127 0
0.343646 0.003201 0.301071 0 255 0
0.237449 -0.001702 -0.059844 255 0 0
0.620088 0.003201 -0.249821 0 255 0
-0.162657 0.013007 0.109281 204 51 127
-0.597265 0.003201 0.278731 0 255 0
0.065005 -0.001702 0.082782 76 0 153
0.907355 0.003201 -0.250948 0 255 0
0.173984 -0.001702 -0.188716 0 0 255
-0.095948 0.009069 0.144829 0 0 255
0.013481 -0.001005 0.187215 0 255 0
0.408636 0.003201 0.362542 0 255 0
0.445712 -0.001702 0.014227 153 0 76
0.322712 0.000451 0.005801 153 0 76
0.877845 -0.001702 0.171913 153 0 76
0.637281 -0.001702 0.204353 76 0 153
0.364139 0.013007 0.042064 153 0 76
0.485914 0.013007 -0.188967 204 51 127
-0.215768 -0.001702 0.226072 0 255 0
0.856554 -0.001702 -0.046798 0 127 127
0.584353 0.013007 -0.155751 0 0 255
-0.908656 -0.033068 0.163229 0 255 0
-0.802030 -0.009233 0.368901 0 255 0
0.883116 0.003201 0.346373 0 255 0
0.207120 0.000055 0.277922 0 255 0
0.084182 -0.001702 0.250658 255 0 0
-0.908656 -0.033080 0.019482 0 255 0
0.189787 -0.001702 0.007302 153 0 76
-0.307664 0.013007 0.199975 0 255 0
0.751346 0.004978 0.084808 0 0 255
-0.382829 0.000863 0.136826 153 76 0
-0.582121 -0.001702 0.069949 76 153 0
-0.239898 -0.000276 0.071906 0 127 127
0.860083 0.003201 0.309492 0 255 0
0.865054 0.013007 0.168744 153 0 76
-0.792383 -0.001702 0.015901 153 0 76
0.339286 0.013007 -0.084331 0 127 127
-0.474518 -0.001702 0.197441 0 255 0
0.569321 0.013007 0.050905 127 0 127
0.502643 -0.001702 -0.056294 0 255 0
-0.367117 0.013007 -0.025476 153 76 0
-0.655404 0.001355 0.161223 127 127 0
0.196069 0.001072 0.180922 127 127 0
0.040679 0.003201 0.331834 0 255 0
-0.684576 -0.001702 -0.038648 76 0 153
0.083164 -0.039396 -0.382549 0 255 0
0.721793 -0.001702 -0.201757 0 255 0
-0.819755 0.013007 -0.207945 255 0 0
-0.497317 0.013007 0.129639 255 0 0
0.508070 -0.001702 0.192992 153 76 0
-0.623672 -0.001702 0.064127 0 127 127
-0.081685 -0.005799 -0.382549 0 255 0
-0.820934 0.013007 0.120291 127 0 127
0.208825 0.003201 -0.292064 0 255 0
0.414332 -0.001702 0.137482 153 0 76
-0.133300 0.013007 -0.210838 153 76 0
0.740482 0.013007 0.222195 153 0 76
0.585066 -0.001702 0.251778 76 0 153
-0.268636 -0.001702 -0.017618 76 0 153
0.663184 -0.001702 -0.072024 0 255 0
0.500933 0.001477 -0.120671 153 76 0
-0.353724 0.010605 -0.104398 153 0 76
0.092696 -0.001702 -0.139971 76 0 153
-0.475687 -0.001702 -0.056847 127 127 0
0.946666 0.000047 -0.367694 0 255 0
-0.531775 -0.001702 0.141470 255 0 0
0.089177 0.003201 -0.240007 0 255 0
0.654686 -0.001702 -0.001543 0 255 0
-0.250078 -0.001702 0.231278 0 255 0
0.708628 0.003201 0.332318 0 255 0
0.080638 -0.001702 -0.068257 153 76 0
0.531361 -0.001702 0.218855 153 76 0
0.025331 0.012443 -0.044295 153 76 0
-0.491523 0.003201 0.334428 0 255 0
0.825083 -0.001702 -0.130154 127 0 127
-0.806578 0.013007 -0.065412 204 51 127
-0.213089 0.003201 0.333162 0 255 0
-0.520806 0.013007 0.231405 76 0 153
-0.665101 0.011860 0.099109 127 127 0
-0.732734 0.003201 -0.338813 0 255 0
-0.404238 0.003201 0.352765 0 255 0
-0.045605 0.013007 0.098274 0 0 255
-0.506072 0.010247 0.235578 76 0 153
0.090880 -0.001702 -0.032852 153 76 0
-0.611299 -0.001702 -0.154059 76 0 153
-0.803121 -0.001243 0.002715 153 0 76
0.664161 0.003201 -0.382325 0 255 0
0.946666 -0.014551 0.057414 0 255 0
0.067351 0.004496 0.146304 255 0 0
0.455932 0.011250 0.257537 76 0 153
-0.417387 0.003201 -0.288666 0 255 0
-0.664134 0.007942 -0.140373 76 0 153
0.549307 -0.001702 0.024946 127 0 127
-0.609346 0.012736 -0.059517 153 0 76
-0.908656 -0.005028 -0.268497 0 255 0
-0.692482 -0.001702 0.169384 127 127 0
0.366560 -0.001702 0.195915 153 0 76
-0.534082 0.003201 -0.306167 0 255 0
0.866099 0.013007 -0.212941 127 127 0
0.000076 -0.012730 -0.382549 0 255 0
-0.081930 -0.001702 0.136380 0 0 255
0.454631 -0.001702 -0.210348 204 51 127
0.480233 0.003201 -0.346433 0 255 0
0.873241 0.013007 0.201701 153 0 76
0.052129 0.012959 -0.016950 153 76 0
-0.722321 0.011173 -0.105183 153 76 0
0.892385 -0.001629 0.192512 153 0 76
-0.253040 -0.001702 -0.063271 153 0 76
-0.053656 0.013007 -0.062355 76 153 0
-0.841807 0.003201 -0.239725 0 255 0
0.731903 -0.020356 0.368901 0 255 0
0.335890 -0.001702 -0.015308 0 127 127
-0.874794 0.003201 -0.004027 0 255 0
0.291301 -0.001702 0.016677 76 153 0
-0.453979 -0.001702 -0.225899 0 127 127
-0.649897 -0.001702 -0.042369 76 0 153
-0.714769 -0.001702 0.138806 127 127 0
0.232140 -0.001702 -0.023530 255 0 0
0.572672 0.013007 0.202538 153 76 0
0.615427 0.003612 0.079912 127 0 127
-0.110157 -0.001702 -0.138155 127 0 127
-0.646489 -0.001702 -0.019545 76 0 153
-0.629565 -0.015721 0.368901 0 255 0
-0.208854 -0.001702 0.103952 153 0 76
-0.258177 0.013007 -0.149496 204 51 127
-0.538286 -0.001702 -0.108134 0 255 0
-0.407523 -0.001702 -0.054729 153 76 0
0.561881 -0.001702 0.224322 153 76 0
-0.701842 0.010798 -0.072062 76 0 153
-0.191241 -0.001702 0.025768 0 127 127
0.644363 -0.000919 -0.382549 0 255 0
0.724290 -0.001702 -0.063635 255 0 0
-0.901409 0.003201 0.290208 0 255 0
-0.359390 -0.011792 -0.382549 0 255 0
-0.393732 0.013007 0.033768 127 127 0
0.267464 -0.001702 0.012480 76 153 0
-0.630684 -0.001702 0.100667 0 255 0
0.525464 0.001240 -0.166563 0 255 0
-0.681017 0.003201 0.329369 0 255 0
0.612664 -0.001702 0.226028 76 0 153
0.636951 -0.021382 0.368901 0 255 0
0.308584 -0.001702 0.172438 76 0 153
-0.619408 0.013007 -0.228371 127 127 0
0.887803 0.003334 0.219937 153 0 76
-0.253981 -0.001702 0.112664 153 0 76
0.040042 0.013007 -0.070393 153 76 0
0.814063 -0.001702 -0.232813 0 255 0
0.033544 -0.001702 -0.124576 0 127 127
0.543542 0.010718 -0.015705 255 0 0
-0.852536 0.003201 0.296700 0 255 0
0.128033 -0.001702 0.233032 0 0 255
0.168685 -0.001702 0.232539 0 0 255
-0.507582 -0.001702 -0.047399 127 127 0
0.783776 -0.001702 -0.094210 204 51 127
-0.094596 0.013007 0.021513 76 153 0
-0.070558 0.003201 0.359124 0 255 0
-0.814790 -0.001702 0.238115 76 153 0
0.887642 0.011125 -0.207278 127 127 0
0.407421 -0.001702 -0.085388 76 0 153
0.617093 -0.005607 0.368901 0 255 0
-0.060235 0.013007 -0.135005 127 0 127
0.735860 0.013007 0.200601 153 0 76
-0.816409 -0.001702 -0.070682 204 51 127
0.211583 0.013007 0.119373 127 127 0
0.212290 -0.001702 -0.055018 255 0 0
0.677021 -0.001702 -0.205483 76 0 153
0.644475 -0.001702 -0.076757 0 255 0
0.647602 0.003201 -0.303535 0 255 0
0.448803 0.002012 0.270328 76 0 153
0.354836 -0.001702 -0.163460 153 76 0
0.654974 -0.002849 0.368901 0 255 0
0.501783 0.003201 -0.248617 0 255 0
-0.032038 0.013007 0.153786 0 0 255
0.060798 0.007160 -0.165871 76 0 153
-0.561110 -0.001702 -0.214179 127 0 127
0.530770 -0.044876 0.368901 0 255 0
-0.038543 -0.001702 0.111568 0 0 255
0.227411 0.011821 0.075333 76 153 0
0.381729 0.013007 0.204487 153 0 76
-0.352292 -0.001702 -0.026138 153 76 0
-0.795134 -0.009150 -0.382549 0 255 0
-0.583311 0.010121 -0.013021 153 0 76
0.657877 0.009709 0.078256 127 127 0
-0.666339 -0.025345 0.368901 0 255 0
-0.030927 0.013007 0.239325 0 255 0
0.836538 0.013007 -0.037429 0 127 127
-0.034192 0.005127 -0.322869 127 127 0
0.746441 -0.001702 0.131270 204 51 127
0.470203 0.013007 -0.212695 204 51 127
-0.079005 -0.001702 0.187510 0 255 0
-0.898271 0.003201 -0.379469 0 255 0
0.561783 -0.001702 0.160248 0 127 127
-0.262095 0.013007 0.237187 0 255 0
-0.331599 0.013007 -0.178401 153 0 76
-0.100738 -0.001702 0.063499 76 153 0
0.188514 0.013007 0.098913 127 127 0
-0.644751 0.013007 -0.108710 76 0 153
0.719996 0.013007 -0.181739 0 255 0
0.631448 0.003201 -0.293082 0 255 0
-0.480296 0.013007 -0.038993 127 127 0
-0.788921 -0.001702 0.228754 76 153 0
0.618939 -0.001702 -0.085464 0 0 255
0.828868 0.007499 0.249635 153 0 76
0.732189 -0.001702 0.000472 255 0 0
0.039941 0.012807 -0.178064 153 0 76
-0.510802 0.013007 -0.160433 0 255 0
0.109300 -0.001023 0.368901 0 255 0
0.543345 0.003201 -0.281493 0 255 0
0.901221 0.003201 -0.064932 0 255 0
0.459083 0.013007 0.238691 76 0 153
-0.555561 0.003201 0.310034 0 255 0
-0.703213 -0.001702 -0.154790 153 76 0
0.552186 0.003201 -0.346511 0 255 0
-0.829631 0.013007 -0.067816 204 51 127
0.110984 -0.001702 0.207580 0 255 0
-0.779544 0.012760 -0.161320 0 0 255
-0.322226 -0.001702 0.118132 76 0 153
-0.609149 -0.001702 0.014887 0 127 127
-0.131968 -0.000921 -0.122760 0 0 255
0.587404 -0.001702 -0.013631 255 0 0
0.315220 0.004014 0.029462 153 0 76
0.235153 0.013007 0.164380 127 127 0
0.676871 0.013007 0.206234 76 0 153
0.099145 -0.001702 -0.008130 153 76 0
0.359308 0.012752 -0.060724 0 127 127
0.598870 0.012980 -0.231997 153 76 0
-0.633854 0.003201 -0.371398 0 255 0
0.235965 -0.009669 0.368901 0 255 0
0.870911 -0.001702 0.029130 76 153 0
-0.393436 0.006401 -0.119105 153 0 76
0.688795 -0.001702 0.189993 76 0 153
-0.401033 0.003201 -0.286689 0 255 0
0.273804 0.007115 -0.046902 255 0 0
0.363977 0.007694 -0.032071 0 127 127
0.550304 0.013007 0.068357 127 0 127
-0.180621 0.003201 -0.305363 0 255 0
-0.637556 -0.001702 0.046876 0 127 127
0.179466 0.012636 0.138182 127 127 0
0.946666 -0.042277 0.076145 0 255 0
-0.908656 -0.045778 -0.097438 0 255 0
-0.539608 0.003201 -0.342653 0 255 0
0.513274 0.001240 0.067671 0 255 0
-0.639442 0.013007 -0.127263 76 0 153
-0.775793 0.008911 -0.201019 255 0 0
-0.671113 0.013007 -0.179498 127 127 0
0.497189 0.008143 0.171132 76 153 0
0.837568 0.013007 0.150440 153 0 76
0.591835 -0.001702 0.191493 0 255 0
-0.679203 -0.001702 -0.187795 127 127 0
-0.908656 0.001910 0.197239 0 255 0
-0.134857 -0.001702 0.064876 76 153 0
-0.908656 -0.009240 0.246326 0 255 0
0.309862 -0.001702 -0.115055 127 0 127
0.801145 0.003201 0.290628 0 255 0
-0.735224 0.013007 -0.193759 0 255 0
0.534475 0.004634 -0.206080 153 76 0
0.220767 -0.001702 0.099667 127 127 0
0.603110 0.013007 -0.140734 0 0 255
-0.103472 0.003201 0.291877 0 255 0
0.290422 0.012130 -0.106509 127 0 127
-0.054204 -0.001702 0.035584 153 0 76
0.116577 0.003201 -0.260978 0 255 0
0.946666 -0.040550 -0.232308 0 255 0
0.946666 -0.033447 0.170880 0 255 0
-0.561757 0.003201 -0.298913 0 255 0
-0.337912 0.005531 -0.299746 0 0 255
-0.908656 -0.014841 -0.044792 0 255 0
0.104917 0.013007 0.052875 76 0 153
0.375140 -0.001702 -0.191809 76 0 153
0.178164 0.003201 0.328072 0 255 0
-0.455904 -0.031316 -0.382549 0 255 0
-0.540272 0.004640 -0.054736 153 0 76
-0.478298 -0.001638 -0.175612 76 0 153
0.302867 -0.001702 -0.233897 0 255 0
0.601330 -0.001702 -0.029178 255 0 0
0.520904 0.001240 0.172189 0 255 0
-0.402424 -0.001702 0.073863 127 127 0
-0.569724 -0.009936 -0.382549 0 255 0
0.440348 0.003201 -0.246362 0 255 0
0.759072 -0.001702 -0.123301 204 51 127
-0.574531 0.012618 -0.231997 127 0 127
0.561726 0.013007 0.100463 0 127 127
0.942432 0.003201 0.194450 0 255 0
-0.427305 0.003201 -0.368447 0 255 0
0.273698 0.013007 0.045475 76 153 0
-0.735210 0.003201 0.314132 0 255 0
0.946666 -0.025402 0.316875 0 255 0
0.314882 0.013007 0.125130 76 0 153
0.061271 -0.013672 -0.382549 0 255 0
-0.782762 0.003201 0.292376 0 255 0
0.289928 0.012319 0.096508 76 0 153
-0.908656 -0.027220 -0.263648 0 255 0
-0.662421 -0.001702 0.088835 0 127 127
0.565340 0.013007 -0.117792 0 0 255
0.946666 0.003172 0.120882 0 255 0
0.647625 -0.001702 0.223131 76 0 153
-0.105033 0.013007 -0.122605 127 0 127
-0.095206 -0.001702 -0.068247 127 127 0
0.693087 -0.001702 0.042167 127 127 0
-0.401110 -0.001702 -0.186954 153 0 76
0.283010 0.013007 0.223437 153 76 0
0.890963 -0.000089 0.156686 153 0 76
-0.358963 0.009995 0.259275 0 255 0
-0.361465 0.003201 -0.316777 0 0 255
-0.103490 0.000897 0.119746 0 0 255
0.927671 0.003201 -0.263628 0 255 0
0.166425 -0.001702 0.258790 0 0 255
0.442693 0.003201 0.339519 0 255 0
-0.123831 -0.001702 0.153805 204 51 127
0.889676 0.001306 0.257948 153 0 76
-0.450190 0.013007 -0.200730 0 127 127
0.653030 -0.001702 0.032806 127 127 0
