ply
format ascii 1.0
element vertex 1295
property float x
property float y
property float z
property uchar red
property uchar green
property uchar blue
end_header
0.172218 -0.112025 0.108809 255 0 0
0.277247 0.028640 -0.293740 255 0 0
-0.175694 -0.113630 0.367958 255 0 0
0.026152 -0.271534 0.182621 0 0 255
0.225956 -0.122214 0.510069 255 0 0
-0.077608 -0.556341 0.172814 127 127 0
0.286899 -0.801658 -0.332534 0 255 0
0.249209 -0.088770 0.227362 0 255 0
0.483079 0.195555 -0.010774 153 76 0
0.203915 0.011330 0.328112 0 255 0
0.140152 -0.154852 0.373090 0 0 255
-0.206456 -0.124244 0.185640 255 0 0
0.443599 -0.053652 0.173522 0 255 0
0.274020 0.572200 -0.245576 255 0 0
0.395246 -0.117465 -0.088873 76 0 153
-0.390938 -0.119155 -0.072385 0 127 127
-0.168063 0.011020 0.137811 0 255 0
0.327337 0.310351 -0.235967 255 0 0
-0.278718 0.042365 -0.292885 255 0 0
-0.373315 0.201010 -0.245141 255 0 0
0.196561 -0.110931 0.170743 255 0 0
-0.088031 0.009606 -0.106135 0 255 0
0.025725 -0.092436 0.104459 0 255 0
0.164967 -0.626573 -0.139206 255 0 0
0.312739 -0.108680 0.396169 255 0 0
0.211200 0.459097 -0.214366 255 0 0
-0.099796 -0.132795 0.158695 0 0 255
-0.411612 0.009476 -0.019992 0 255 0
-0.008570 0.008807 0.385705 0 255 0
-0.146994 -0.026639 -0.237201 0 255 0
0.287271 0.100991 -0.226544 255 0 0
-0.298996 0.253818 -0.191615 255 0 0
0.048137 -0.580029 0.071079 153 0 76
-0.300695 0.323642 -0.195247 255 0 0
-0.153700 0.169907 -0.251895 255 0 0
0.125417 0.267081 -0.193796 255 0 0
0.219749 0.011751 0.151503 0 255 0
-0.514655 0.323181 -0.041633 127 127 0
0.088933 0.009084 0.148088 0 255 0
-0.420855 -0.086768 0.364016 0 255 0
0.478230 0.250100 -0.070280 153 76 0
0.131939 0.010040 0.357012 0 255 0
0.316212 0.704132 -0.290994 255 0 0
-0.071575 0.434402 -0.256380 255 0 0
-0.010623 0.626526 -0.304703 255 0 0
-0.233869 0.011431 0.384888 0 255 0
-0.286922 0.013771 0.266407 0 255 0
0.280430 -0.021952 0.586170 0 255 0
-0.029750 0.225071 -0.197382 255 0 0
-0.379945 0.236129 -0.194623 255 0 0
-0.137592 -0.233104 -0.079503 0 0 255
-0.347225 -0.086338 0.092339 0 255 0
-0.223429 -0.156943 -0.081611 0 127 127
-0.205110 0.526853 -0.235001 255 0 0
0.448411 0.108612 -0.080186 153 76 0
0.343427 -0.156137 -0.088377 76 0 153
0.267309 -0.591395 0.200410 0 127 127
0.210427 0.009988 -0.262908 255 0 0
-0.237612 0.663985 -0.317162 255 0 0
-0.370671 0.140673 -0.260017 255 0 0
-0.250684 0.350484 -0.243892 255 0 0
0.202167 0.338542 -0.238820 255 0 0
0.117459 0.384951 -0.248733 255 0 0
0.259751 -0.115297 -0.102321 76 0 153
-0.069661 -0.558830 0.054055 0 255 0
-0.003054 0.377046 -0.199212 255 0 0
-0.329774 -0.115245 -0.143480 0 127 127
0.058481 -0.097893 -0.221692 0 255 0
-0.489146 -0.735751 0.276231 153 0 76
0.513279 -0.732644 0.281092 153 0 76
-0.254494 0.008811 -0.132621 0 255 0
-0.176032 -0.149270 0.131141 255 0 0
0.302159 -0.111714 -0.310264 255 0 0
-0.222097 -0.114225 0.220725 255 0 0
-0.391520 -0.085709 0.121674 0 255 0
-0.276270 0.177977 -0.204857 255 0 0
-0.186432 0.266428 -0.234653 255 0 0
-0.434317 0.028321 -0.099759 127 0 127
0.003613 0.212660 -0.242120 255 0 0
-0.462701 -0.030592 -0.047820 127 0 127
-0.379945 0.497226 -0.237900 255 0 0
-0.435166 -0.009901 -0.116181 127 0 127
-0.332571 -0.089547 -0.067805 0 255 0
-0.005392 -0.197590 -0.223192 0 0 255
-0.158098 -0.640340 -0.147122 0 255 0
0.151459 -0.198071 -0.233982 0 0 255
0.006573 -0.132795 0.207754 0 0 255
-0.057523 -0.126902 -0.069116 0 127 127
-0.118087 0.116034 -0.224601 255 0 0
0.043066 -0.267460 -0.076844 0 0 255
-0.431627 -0.128948 -0.100662 127 0 127
0.097375 0.382859 -0.204139 255 0 0
0.483103 0.323084 0.063496 76 0 153
-0.002654 -0.094331 0.435339 0 255 0
-0.345483 0.024692 -0.293574 255 0 0
-0.225589 0.224248 -0.197452 255 0 0
-0.068792 -0.169568 -0.290115 255 0 0
-0.200845 0.192521 -0.201441 255 0 0
0.027440 -0.092377 0.355621 0 255 0
0.523152 0.325246 -0.091703 76 0 153
-0.333674 -0.074440 0.576773 0 255 0
-0.310062 -0.174435 -0.254237 255 0 0
-0.258126 -0.802975 -0.314091 76 153 0
-0.066982 -0.091998 0.263341 0 255 0
-0.072548 0.008999 0.160722 0 255 0
0.018945 0.322761 -0.237223 255 0 0
0.074125 -0.132795 0.095654 0 0 255
-0.079391 0.009636 0.082905 0 255 0
-0.100436 -0.132795 0.274516 0 0 255
-0.086844 -0.091076 -0.057035 0 255 0
-0.299888 -0.018784 -0.294827 255 0 0
0.179168 0.193700 -0.245908 255 0 0
0.272665 -0.098428 -0.217535 0 255 0
-0.065372 0.009353 0.365159 0 255 0
-0.303752 0.005110 -0.185459 0 255 0
0.087254 -0.159538 -0.288503 255 0 0
-0.256623 0.514337 -0.227683 255 0 0
0.151459 -0.212676 -0.092269 0 0 255
-0.101365 -0.270391 -0.061686 0 0 255
0.126081 0.433762 -0.256224 255 0 0
-0.137592 -0.260052 0.113466 0 0 255
-0.427317 -0.018839 0.335573 0 255 0
-0.072231 0.008923 0.199506 0 255 0
-0.307860 -0.115532 0.439308 255 0 0
0.264961 -0.022415 -0.271814 255 0 0
0.265176 -0.064004 0.588743 0 255 0
0.203999 0.080161 -0.234300 255 0 0
0.384440 -0.199996 -0.244398 255 0 0
-0.096935 0.705306 -0.292680 255 0 0
-0.101071 -0.093284 0.424802 0 255 0
0.324102 0.441276 -0.213749 255 0 0
-0.007769 0.008589 0.244148 0 255 0
-0.129657 -0.121325 0.492854 255 0 0
-0.020377 0.674145 -0.282843 255 0 0
-0.237500 0.595396 -0.299557 255 0 0
0.320090 0.014216 0.245030 0 255 0
-0.220282 -0.198298 -0.285291 255 0 0
-0.294475 0.130910 -0.259719 255 0 0
-0.368269 -0.097266 0.529720 0 255 0
0.295390 0.385472 -0.243569 255 0 0
0.455128 0.249139 0.121123 204 51 127
-0.243519 0.031705 -0.256275 255 0 0
-0.382041 0.287847 -0.077962 127 127 0
0.167889 -0.116816 0.433160 255 0 0
-0.288193 -0.084275 -0.307889 255 0 0
-0.472658 -0.698520 0.254120 127 127 0
0.257656 0.047050 -0.250880 255 0 0
-0.329654 -0.087550 0.343412 0 255 0
-0.224670 -0.113216 0.308770 255 0 0
0.167806 -0.149270 0.277377 255 0 0
-0.311172 0.063892 -0.244266 255 0 0
-0.165163 -0.113184 0.072796 255 0 0
0.394157 -0.002481 -0.268642 255 0 0
-0.430977 -0.073608 0.172092 0 255 0
0.053224 -0.132795 0.050208 0 0 255
-0.155069 0.004175 -0.212949 0 255 0
0.450536 0.276115 -0.100397 76 0 153
-0.045527 0.184073 -0.203426 255 0 0
0.056650 0.647119 -0.311256 255 0 0
0.136533 -0.155511 -0.261521 255 0 0
-0.254636 0.009780 0.431013 0 255 0
0.340332 0.012723 -0.048206 0 255 0
-0.378017 -0.037047 0.559994 0 255 0
-0.372786 0.289533 0.079164 127 127 0
0.348059 -0.086571 0.247434 0 255 0
-0.087082 -0.091479 0.078495 0 255 0
-0.137592 -0.242779 0.239268 0 0 255
-0.402430 0.275094 0.063500 127 127 0
0.520863 0.285024 -0.108973 76 0 153
-0.069219 0.007480 -0.154489 0 255 0
0.268063 -0.807240 -0.284080 0 255 0
0.206420 -0.631834 0.205473 0 127 127
0.000591 -0.576898 0.085804 76 0 153
-0.011196 -0.514087 0.190369 127 0 127
0.304214 -0.176729 -0.294645 255 0 0
-0.159436 0.011214 -0.038032 0 255 0
0.303163 -0.603990 0.196318 0 127 127
0.106049 -0.587016 -0.059473 255 0 0
-0.065282 -0.274324 0.105318 0 0 255
0.055590 0.705474 -0.293018 255 0 0
-0.340425 0.265405 -0.193939 255 0 0
0.027370 -0.274149 0.030362 0 0 255
-0.376186 -0.087424 -0.011838 0 255 0
0.226832 0.407438 -0.251891 255 0 0
-0.011941 -0.765579 0.611425 204 51 127
-0.244944 0.005064 -0.195908 0 255 0
0.177948 -0.112064 0.320500 255 0 0
-0.023383 -0.247593 0.314454 0 0 255
0.098503 -0.192936 -0.087814 0 0 255
0.206593 0.145907 -0.213835 255 0 0
0.414932 -0.085584 0.220765 0 255 0
0.289369 0.098126 -0.271999 255 0 0
0.177715 0.382245 -0.248353 255 0 0
-0.023459 -0.595247 0.063522 153 0 76
0.327287 0.511979 -0.227114 255 0 0
0.296409 0.536721 -0.277991 255 0 0
0.440526 -0.024297 0.327271 0 255 0
0.008598 -0.103489 0.553116 0 255 0
-0.292113 0.673580 -0.324366 255 0 0
-0.204261 -0.615826 -0.133989 0 255 0
-0.346599 0.013827 -0.007200 0 255 0
-0.221410 0.336871 -0.197234 255 0 0
-0.359796 -0.684668 0.215977 127 127 0
-0.137579 0.680430 -0.326782 255 0 0
0.351139 0.193531 -0.245926 255 0 0
0.093135 -0.091279 0.035105 0 255 0
-0.104214 -0.247593 0.301196 0 0 255
-0.468328 0.208639 -0.005240 153 0 76
-0.419399 -0.055430 0.444428 0 255 0
0.025551 -0.110587 -0.122907 0 127 127
-0.173370 -0.090332 0.321857 0 255 0
0.374015 -0.089635 -0.081933 0 255 0
-0.067830 -0.092320 -0.277497 255 0 0
-0.089396 -0.580148 0.126956 127 127 0
0.031236 -0.470106 0.133541 76 0 153
-0.208154 -0.062039 -0.276403 255 0 0
-0.129284 -0.274193 0.036202 0 0 255
-0.109262 -0.109944 -0.140300 0 127 127
0.391227 0.008829 0.467936 0 255 0
-0.430090 -0.049053 0.122959 0 255 0
-0.021105 0.444570 -0.210864 255 0 0
-0.359797 -0.150486 -0.108760 0 127 127
-0.212087 -0.604300 0.166887 127 127 0
0.094679 -0.093747 -0.157034 0 255 0
-0.063373 0.471922 -0.262117 255 0 0
-0.208887 -0.095475 0.496441 0 255 0
0.325622 0.215341 -0.198212 255 0 0
-0.371198 0.572501 -0.244634 255 0 0
-0.479885 -0.812451 0.290229 76 0 153
0.389962 -0.091668 0.557592 0 255 0
-0.129359 -0.132795 0.073681 0 0 255
-0.177857 0.546999 -0.284861 255 0 0
-0.192465 -0.129159 -0.150336 0 127 127
0.209631 0.011653 0.258605 0 255 0
-0.296552 0.764694 -0.309900 255 0 0
-0.061952 -0.027112 -0.272358 255 0 0
-0.114432 -0.077951 0.603905 0 255 0
-0.216767 0.634077 -0.269358 255 0 0
0.321603 -0.810583 -0.293395 127 127 0
0.061234 0.009528 0.060145 0 255 0
-0.276246 0.013487 0.196775 0 255 0
-0.135649 0.762971 -0.308242 255 0 0
-0.108869 -0.210444 -0.128472 0 0 255
0.063459 -0.273710 -0.027514 0 0 255
-0.171813 -0.016599 -0.271029 255 0 0
-0.348188 0.172052 -0.250843 255 0 0
-0.014834 0.332310 -0.193603 255 0 0
-0.174450 -0.173016 -0.295994 255 0 0
-0.006984 -0.574125 0.142455 76 0 153
0.151459 -0.136333 0.176962 0 0 255
0.062874 -0.526517 0.028778 255 0 0
0.547785 0.308031 -0.046452 76 0 153
0.244971 -0.002266 0.570344 0 255 0
-0.169449 -0.089702 0.014627 0 255 0
0.111236 -0.132795 0.236487 0 0 255
-0.261903 -0.088172 0.012277 0 255 0
-0.032878 0.762746 -0.308027 255 0 0
-0.372324 -0.064477 -0.196273 0 255 0
0.045807 -0.034882 -0.291071 255 0 0
0.075966 -0.092077 -0.102671 0 255 0
-0.442692 -0.062812 -0.137509 127 0 127
-0.122330 0.001651 -0.265455 255 0 0
0.482246 0.142322 -0.019678 153 76 0
0.268262 0.319969 -0.239606 255 0 0
-0.466380 0.273763 0.012158 127 0 127
0.252589 0.012705 0.274252 0 255 0
0.074748 -0.577710 -0.016867 255 0 0
0.034965 -0.247593 0.236588 0 0 255
-0.324486 0.014580 0.157147 0 255 0
0.317385 -0.096100 0.341402 255 0 0
0.087959 0.009702 -0.089463 0 255 0
0.151459 -0.245470 -0.183061 0 0 255
-0.249787 0.773955 -0.322262 255 0 0
-0.005644 -0.537148 0.087542 76 0 153
-0.110367 0.571144 -0.288230 255 0 0
0.449896 0.244241 0.003803 153 76 0
-0.290524 -0.119776 0.490522 255 0 0
0.252589 -0.111193 0.283992 255 0 0
0.362517 0.419313 -0.253559 255 0 0
0.307564 0.181307 -0.200180 255 0 0
-0.379945 0.668393 -0.274709 255 0 0
-0.379260 0.071302 -0.237599 255 0 0
0.442049 -0.014144 0.075875 0 255 0
-0.469675 0.083132 -0.093398 127 0 127
-0.024331 0.706403 -0.332016 255 0 0
0.182057 0.478713 -0.267236 255 0 0
-0.035785 0.002112 0.515488 0 255 0
-0.212454 0.538774 -0.278602 255 0 0
0.365063 -0.089004 0.397708 0 255 0
-0.058768 -0.052047 -0.241176 0 255 0
0.343069 0.485202 -0.265218 255 0 0
-0.280535 -0.782487 -0.257739 0 127 127
-0.012585 0.163459 -0.248952 255 0 0
0.240341 0.008361 0.454095 0 255 0
0.178661 0.034946 -0.255285 255 0 0
-0.379945 0.713651 -0.295272 255 0 0
0.053582 0.009517 -0.098565 0 255 0
0.082976 0.607268 -0.256966 255 0 0
-0.258885 0.579533 -0.252112 255 0 0
-0.118400 -0.132795 -0.019802 0 0 255
-0.137592 -0.238673 -0.128864 0 0 255
0.513773 0.273707 0.010604 76 0 153
0.291691 0.003971 0.512792 0 255 0
0.318350 -0.755257 -0.335144 0 255 0
-0.033638 0.009603 -0.093320 0 255 0
-0.299737 -0.113287 0.056560 255 0 0
-0.191016 0.011833 0.036775 0 255 0
0.226960 -0.121519 0.359314 255 0 0
0.131168 0.655616 -0.318030 255 0 0
0.168701 0.011072 0.025874 0 255 0
0.076406 0.045872 -0.251342 255 0 0
-0.020405 -0.214985 -0.272179 0 0 255
-0.095344 -0.579413 0.018386 0 255 0
0.137339 0.101883 -0.229701 255 0 0
-0.158878 0.669989 -0.281081 255 0 0
0.000715 -0.571734 0.180360 153 0 76
0.401099 -0.086609 0.010479 0 255 0
-0.329257 -0.767065 -0.324920 0 127 127
0.322664 0.312135 -0.191074 255 0 0
-0.325137 0.002256 0.544010 0 255 0
-0.415735 -0.012414 0.496031 0 255 0
0.261781 -0.112954 0.073198 255 0 0
-0.107744 0.557729 -0.240875 255 0 0
0.112706 -0.144471 -0.034143 0 0 255
0.157984 -0.091250 -0.078715 0 255 0
0.001343 0.016624 -0.293235 255 0 0
-0.158751 0.586931 -0.250360 255 0 0
0.394157 -0.079169 -0.298348 255 0 0
-0.036948 -0.091151 -0.044021 0 255 0
0.121294 -0.209362 0.373090 0 0 255
0.057644 -0.132795 0.233108 0 0 255
0.047243 -0.149119 -0.119315 76 0 153
0.071743 -0.067635 0.605450 0 255 0
0.253199 0.011318 0.386482 0 255 0
0.136688 0.491130 -0.266603 255 0 0
-0.309208 0.730014 -0.295959 255 0 0
0.098215 -0.220386 -0.257510 255 0 0
0.124272 0.331578 -0.196439 255 0 0
0.262953 0.283380 -0.233237 255 0 0
-0.469818 0.150491 -0.060609 127 0 127
0.023946 -0.254493 -0.143908 0 0 255
0.295414 -0.110831 0.191788 255 0 0
-0.312175 -0.023682 0.580185 0 255 0
-0.304642 0.574285 -0.293147 255 0 0
-0.351669 0.635658 -0.307420 255 0 0
0.273399 -0.650681 0.226915 0 127 127
-0.420786 0.324040 0.099076 127 127 0
-0.293544 0.443948 -0.210714 255 0 0
0.405290 0.323271 0.072946 76 0 153
0.049098 -0.096059 0.478516 0 255 0
0.151459 -0.169643 0.230332 0 0 255
0.354866 0.014228 0.320296 0 255 0
-0.168045 -0.094565 0.467812 0 255 0
0.208928 -0.127801 -0.150414 76 0 153
0.109229 -0.574350 0.015734 255 0 0
-0.076266 -0.248275 -0.176069 0 0 255
-0.235150 -0.660814 -0.251535 0 255 0
-0.110651 -0.091731 0.385622 0 255 0
0.431629 0.323653 -0.050864 76 0 153
-0.157065 0.243378 -0.192848 255 0 0
0.442476 -0.085245 0.110770 0 255 0
-0.176486 -0.118727 -0.089203 0 127 127
0.247133 -0.111986 0.112512 255 0 0
0.078242 -0.092199 0.137015 0 255 0
-0.137592 -0.157756 0.227314 0 0 255
-0.096164 0.362197 -0.245537 255 0 0
-0.304097 -0.144957 -0.129287 0 127 127
0.018457 -0.020393 0.605659 0 255 0
-0.009264 -0.246700 -0.183575 0 0 255
-0.315212 0.529486 -0.235856 255 0 0
0.149479 -0.090683 0.047722 0 255 0
-0.158609 -0.149270 0.306544 255 0 0
0.005254 -0.097110 0.498147 0 255 0
0.314271 0.204666 -0.243230 255 0 0
0.087977 0.069905 -0.282569 255 0 0
-0.144896 0.117526 -0.269540 255 0 0
-0.095968 -0.272754 0.148817 0 0 255
-0.129560 -0.106633 0.585345 0 255 0
-0.284602 -0.088769 0.366999 0 255 0
0.071979 -0.093999 0.435567 0 255 0
0.121705 0.734273 -0.345772 255 0 0
-0.107997 0.009807 0.329039 0 255 0
-0.243618 0.012616 0.298024 0 255 0
0.151459 -0.202486 0.329110 0 0 255
0.107853 -0.132795 0.315907 0 0 255
0.179392 -0.069840 0.599338 0 255 0
0.194109 -0.139158 -0.267815 255 0 0
0.055256 0.008866 0.232098 0 255 0
-0.176437 0.695320 -0.332033 255 0 0
-0.254864 -0.110739 0.230491 255 0 0
0.025712 -0.149270 0.420291 255 0 0
0.023535 -0.345807 0.104198 153 76 0
-0.116633 0.197864 -0.198224 255 0 0
-0.204044 -0.630380 -0.189876 0 255 0
-0.259299 -0.072212 0.587873 0 255 0
0.177350 0.211148 -0.196655 255 0 0
0.467997 -0.704046 0.288436 0 127 127
0.427832 -0.658792 0.270716 0 127 127
-0.056133 0.109613 -0.226915 255 0 0
0.287930 0.013457 0.286194 0 255 0
0.031570 -0.208034 -0.110113 0 0 255
0.188989 -0.103918 0.564486 0 255 0
0.008072 -0.291810 0.095402 153 76 0
-0.003307 -0.260962 -0.110453 0 0 255
0.242427 0.012281 -0.021609 0 255 0
0.432922 0.258429 0.096739 204 51 127
0.420614 0.326401 0.128354 76 0 153
-0.091521 -0.016892 -0.239678 0 255 0
-0.123583 0.075445 -0.239729 255 0 0
-0.447888 0.322288 0.000119 127 127 0
-0.409225 -0.054238 0.519031 0 255 0
-0.219467 0.159356 -0.209232 255 0 0
0.008933 -0.643365 0.084958 76 0 153
0.319020 -0.083956 0.139186 255 0 0
0.058219 0.768816 -0.320792 255 0 0
-0.023500 -0.091875 -0.089517 0 255 0
0.109091 -0.043054 -0.290728 255 0 0
-0.327852 -0.045802 -0.274523 255 0 0
0.418310 0.275462 -0.045289 76 0 153
0.151459 -0.199107 0.291542 0 0 255
0.121743 -0.204944 -0.170691 0 0 255
0.263971 0.403819 -0.207287 255 0 0
0.048183 -0.811679 0.638624 153 0 76
-0.072734 -0.229018 0.373090 0 0 255
-0.424837 -0.033578 0.375174 0 255 0
-0.021659 -0.464110 0.126596 76 0 153
-0.231975 0.109512 -0.267734 255 0 0
-0.170465 -0.592361 0.202521 127 127 0
0.448491 0.245377 -0.031410 153 76 0
0.397867 0.377371 -0.213458 255 0 0
-0.025452 -0.273255 0.134935 0 0 255
-0.043811 0.565660 -0.247605 255 0 0
0.059548 -0.217412 -0.265587 0 0 255
-0.387610 -0.106883 -0.140524 0 127 127
0.531578 -0.814209 0.300618 204 51 127
-0.353282 -0.086377 0.287750 0 255 0
0.196994 0.299933 -0.237454 255 0 0
0.261519 -0.707300 -0.269247 255 0 0
0.135470 0.010320 0.073906 0 255 0
0.001213 0.255344 -0.236193 255 0 0
-0.522649 -0.813593 0.278016 153 76 0
0.348933 0.014790 0.115405 0 255 0
-0.137592 -0.202034 0.144150 0 0 255
-0.273704 -0.111042 0.162834 255 0 0
0.397867 0.677262 -0.324916 255 0 0
-0.443151 0.328137 0.156535 127 127 0
0.200471 -0.658980 -0.187123 255 0 0
-0.109205 0.424560 -0.251058 255 0 0
0.468343 0.242975 0.043608 204 51 127
0.229411 0.108403 -0.227351 255 0 0
-0.124787 -0.214829 -0.272474 0 0 255
0.079951 -0.197799 -0.221698 0 0 255
0.284443 0.621839 -0.307587 255 0 0
-0.274093 -0.118203 -0.043840 255 0 0
-0.039428 0.009996 -0.053063 0 255 0
0.152090 0.248850 -0.237094 255 0 0
0.266452 -0.089007 -0.038293 0 255 0
0.151785 0.010213 0.139827 0 255 0
0.415634 0.003985 0.493388 0 255 0
-0.363042 -0.090023 -0.082766 0 255 0
-0.046573 -0.092274 0.132413 0 255 0
0.044310 -0.237656 -0.210611 0 0 255
-0.351478 0.011575 -0.078322 0 255 0
-0.378941 -0.657053 0.222217 127 127 0
0.357742 0.455851 -0.217346 255 0 0
0.296324 -0.110947 0.255188 255 0 0
-0.212590 -0.089850 0.355787 0 255 0
-0.369750 0.011226 0.438010 0 255 0
0.241164 0.009317 -0.126825 0 255 0
-0.195818 0.003176 0.517138 0 255 0
0.057334 -0.070323 -0.241766 0 255 0
0.085091 -0.569927 0.166283 0 127 127
-0.322339 -0.086690 0.139171 0 255 0
-0.190292 0.215680 -0.241700 255 0 0
0.121178 -0.136726 0.472339 255 0 0
-0.064988 -0.271807 0.175043 0 0 255
0.177871 -0.090289 -0.049638 0 255 0
-0.332843 0.006809 -0.155066 0 255 0
0.468365 0.324617 -0.102232 76 0 153
0.033467 -0.555617 0.221530 127 0 127
-0.167095 0.386361 -0.204665 255 0 0
-0.537877 0.273938 0.021776 127 127 0
0.338869 0.000052 0.555553 0 255 0
-0.418627 -0.013444 0.461026 0 255 0
0.179193 -0.095965 0.495292 0 255 0
0.077688 -0.092272 0.216144 0 255 0
-0.130075 0.359252 -0.240916 255 0 0
-0.106438 -0.161832 0.373090 0 0 255
-0.430436 0.275388 -0.083794 127 127 0
0.271288 0.013215 0.084440 0 255 0
0.288706 0.426339 -0.254546 255 0 0
0.208421 -0.089731 0.221163 0 255 0
0.054955 0.177266 -0.247035 255 0 0
-0.396160 -0.679208 0.273341 127 127 0
0.006276 0.271856 -0.189484 255 0 0
-0.342550 -0.189211 -0.289231 255 0 0
0.445479 0.322456 0.042520 76 0 153
0.363475 0.103692 -0.229049 255 0 0
0.377545 0.013584 -0.030671 0 255 0
-0.328989 0.014001 0.330253 0 255 0
0.483744 0.059860 -0.077211 153 76 0
0.159631 0.665041 -0.275731 255 0 0
0.007933 -0.346801 0.136075 153 76 0
0.193598 -0.149270 0.386265 255 0 0
-0.132758 -0.090688 0.071414 0 255 0
0.260762 -0.094457 0.481739 0 255 0
0.093738 0.678362 -0.280058 255 0 0
0.208000 -0.565771 0.157095 0 127 127
-0.346235 0.014425 -0.261553 255 0 0
0.331430 0.011283 0.411955 0 255 0
-0.026807 -0.005472 -0.267630 255 0 0
0.165871 -0.154060 -0.075321 76 0 153
0.477300 -0.794470 0.311453 204 51 127
-0.052734 -0.157107 -0.084042 0 127 127
0.251942 -0.122489 -0.149569 76 0 153
0.098240 -0.089341 0.604601 0 255 0
0.098829 -0.136295 0.373090 0 0 255
-0.489155 -0.803018 0.239544 153 76 0
-0.428457 -0.082385 0.311148 0 255 0
0.234210 0.699778 -0.333606 255 0 0
0.439515 -0.010252 0.023489 0 255 0
0.080482 -0.149270 0.425317 255 0 0
-0.371934 -0.005205 -0.191152 0 255 0
-0.137592 -0.188733 0.025942 0 0 255
-0.158177 -0.614653 -0.069139 0 255 0
0.338952 -0.794492 -0.317403 127 127 0
0.082604 0.009286 0.111694 0 255 0
-0.050761 -0.593384 0.093557 153 0 76
0.244031 0.312765 -0.193938 255 0 0
0.357897 -0.086934 0.026674 0 255 0
-0.154434 0.589764 -0.293769 255 0 0
-0.087508 0.010023 0.047676 0 255 0
-0.002348 -0.273646 -0.035897 0 0 255
0.365383 0.553800 -0.283071 255 0 0
0.395091 0.285464 -0.068054 76 0 153
0.078469 -0.086526 -0.288901 255 0 0
-0.378345 -0.082841 -0.285997 255 0 0
-0.047320 -0.206036 -0.162900 0 0 255
0.289088 -0.088261 0.019892 0 255 0
0.433898 0.002993 0.362691 0 255 0
-0.423698 0.257864 0.110736 153 0 76
0.353606 0.053508 -0.288711 255 0 0
-0.254387 0.000534 -0.265796 255 0 0
0.135485 -0.149270 0.419598 255 0 0
-0.369137 0.078273 -0.282977 255 0 0
0.280670 -0.732974 -0.293896 255 0 0
-0.258650 -0.093014 -0.142698 0 255 0
0.151459 -0.244177 0.059658 0 0 255
-0.147374 0.745250 -0.349644 255 0 0
-0.466927 0.084155 -0.028532 127 0 127
0.024186 -0.247593 0.367048 0 0 255
0.316696 0.252009 -0.239790 255 0 0
-0.445976 0.183668 0.014797 153 0 76
0.056332 0.107737 -0.227591 255 0 0
-0.117901 -0.273715 -0.026850 0 0 255
0.340690 0.644408 -0.266941 255 0 0
-0.135381 0.010194 0.368826 0 255 0
0.138596 -0.020841 -0.238405 0 255 0
-0.110676 -0.091367 0.294044 0 255 0
0.400709 -0.022914 0.550239 0 255 0
0.004327 -0.116821 -0.095669 0 127 127
0.025187 0.723552 -0.294736 255 0 0
0.011707 -0.443190 0.085524 76 0 153
0.015714 -0.132795 0.070361 0 0 255
-0.249409 0.388545 -0.200653 255 0 0
0.334688 0.014414 0.071157 0 255 0
-0.050698 0.751653 -0.351902 255 0 0
-0.305987 0.161828 -0.249178 255 0 0
0.030628 -0.091725 0.026534 0 255 0
-0.187495 0.773512 -0.324334 255 0 0
-0.002857 -0.807342 0.643547 204 51 127
-0.153870 0.319333 -0.236876 255 0 0
0.238829 -0.116014 0.428247 255 0 0
0.219556 -0.615607 -0.137015 255 0 0
0.330176 0.588484 -0.293388 255 0 0
0.245739 0.011293 -0.063684 0 255 0
-0.347061 0.014959 0.098085 0 255 0
0.190142 -0.093928 0.456537 0 255 0
0.200617 -0.586598 0.203825 0 127 127
-0.044031 -0.503520 0.151876 153 0 76
-0.332018 0.389838 -0.205187 255 0 0
-0.161023 -0.098715 -0.231782 0 255 0
0.423286 0.014939 0.149077 0 255 0
-0.257236 0.001764 0.538931 0 255 0
-0.225366 -0.089049 -0.027103 0 255 0
0.175043 -0.149270 0.157749 255 0 0
0.475100 -0.085317 -0.063241 153 76 0
0.371377 0.262133 -0.194218 255 0 0
0.151459 -0.168696 0.056018 0 0 255
-0.013118 -0.633287 0.468835 127 0 127
-0.051143 -0.268523 -0.071346 0 0 255
-0.425547 0.323841 -0.064958 127 127 0
0.216497 0.165002 -0.248738 255 0 0
-0.142129 -0.620619 -0.125483 0 255 0
0.269390 -0.110536 -0.306501 255 0 0
-0.116131 0.538798 -0.278609 255 0 0
0.063595 -0.092222 0.245981 0 255 0
0.115156 0.144500 -0.211580 255 0 0
-0.153134 0.153534 -0.208354 255 0 0
0.189270 0.009552 -0.121071 0 255 0
-0.244677 -0.122083 -0.149500 0 127 127
-0.237841 -0.650783 -0.181130 0 255 0
-0.285179 -0.087608 0.288863 0 255 0
-0.149062 -0.053392 -0.275402 255 0 0
-0.012806 -0.479173 0.092247 76 0 153
0.348179 -0.119095 -0.084579 76 0 153
-0.152351 0.469089 -0.261456 255 0 0
0.039919 0.006268 0.462942 0 255 0
-0.434494 0.231661 -0.036237 127 0 127
0.427193 0.293416 -0.126335 76 0 153
-0.434552 0.033136 -0.047018 127 0 127
0.048127 -0.782566 0.616469 153 0 76
-0.232542 -0.112639 0.340713 255 0 0
-0.246612 -0.050167 -0.225400 0 255 0
-0.376073 0.321403 -0.239807 255 0 0
-0.173488 -0.111811 0.117961 255 0 0
-0.030160 0.417910 -0.253362 255 0 0
-0.379945 0.633958 -0.279284 255 0 0
-0.260732 0.700279 -0.289637 255 0 0
0.253597 0.005159 -0.292754 255 0 0
0.309877 0.587983 -0.250472 255 0 0
0.189841 -0.098189 -0.222314 0 255 0
-0.096558 0.319833 -0.192039 255 0 0
0.030661 -0.666575 0.550100 127 0 127
0.135681 0.049136 -0.250060 255 0 0
-0.029360 0.272502 -0.237639 255 0 0
0.101937 0.147153 -0.253635 255 0 0
0.134958 -0.604271 0.132741 0 127 127
0.182502 -0.591020 -0.085398 255 0 0
0.011615 0.071505 -0.281970 255 0 0
-0.076772 -0.132795 0.033018 0 0 255
-0.498609 -0.778922 0.325112 76 0 153
0.363854 -0.024056 -0.306699 255 0 0
-0.186658 -0.618558 -0.164658 0 255 0
0.142601 -0.540717 0.159329 0 127 127
0.321896 0.665735 -0.321599 255 0 0
0.429253 0.007849 -0.007418 0 255 0
0.036887 -0.582157 0.110540 76 0 153
0.009985 -0.044293 -0.243451 0 255 0
0.085663 0.306036 -0.237649 255 0 0
-0.291013 0.001325 -0.265554 255 0 0
-0.027104 -0.116834 0.495562 255 0 0
-0.137592 -0.185545 -0.075627 0 0 255
-0.123336 -0.146348 -0.131386 0 127 127
0.362093 0.619598 -0.306907 255 0 0
0.022100 -0.516552 0.089084 153 0 76
0.365102 0.684623 -0.284121 255 0 0
0.150279 -0.597334 0.187403 0 127 127
-0.254804 -0.099322 -0.305413 255 0 0
-0.127531 0.495676 -0.223184 255 0 0
-0.288269 -0.644862 0.239717 127 127 0
-0.267982 0.006640 -0.168305 0 255 0
0.102398 0.535155 -0.281359 255 0 0
-0.348372 -0.089385 0.414042 0 255 0
0.423701 0.273678 0.025233 76 0 153
-0.259020 0.078072 -0.283051 255 0 0
-0.057907 -0.247593 0.341866 0 0 255
-0.066737 0.533497 -0.277032 255 0 0
0.483690 0.168720 -0.076073 153 76 0
-0.078438 -0.149270 0.447288 255 0 0
-0.378317 -0.138044 -0.268244 255 0 0
-0.011790 -0.165707 -0.257596 255 0 0
-0.049448 -0.506829 0.090864 0 255 0
0.320011 0.053436 -0.248372 255 0 0
0.296914 0.692793 -0.327250 255 0 0
-0.076101 0.004764 0.490737 0 255 0
-0.218704 0.012159 0.256240 0 255 0
-0.092088 0.219281 -0.197876 255 0 0
-0.172529 0.009291 0.415183 0 255 0
-0.056023 -0.092490 0.202709 0 255 0
0.106480 0.027643 -0.293698 255 0 0
0.151459 -0.227248 -0.213688 0 0 255
-0.441690 0.274110 0.047021 127 127 0
0.363895 0.249115 -0.237058 255 0 0
-0.342113 0.012844 -0.040286 0 255 0
-0.200624 -0.089634 0.230459 0 255 0
0.406182 0.318716 -0.091537 76 0 153
0.048187 -0.124013 0.517603 255 0 0
0.218294 -0.119217 -0.048665 255 0 0
0.029853 0.661684 -0.274641 255 0 0
0.006113 0.009766 0.001750 0 255 0
0.210279 -0.112858 -0.112897 76 0 153
-0.125310 -0.095771 0.522671 0 255 0
0.414816 0.015727 0.099878 0 255 0
-0.341559 0.198135 -0.198192 255 0 0
-0.110806 -0.139193 -0.290771 255 0 0
0.111761 -0.550739 -0.013028 255 0 0
0.198735 -0.196644 -0.286008 255 0 0
0.196652 0.127322 -0.261063 255 0 0
0.056988 -0.274264 0.045530 0 0 255
-0.133737 0.006868 0.466765 0 255 0
-0.172204 0.012021 -0.293042 255 0 0
-0.037993 0.009112 0.317363 0 255 0
-0.296872 -0.753406 -0.320823 76 153 0
-0.174627 -0.115523 0.409922 255 0 0
0.123579 0.000864 0.531300 0 255 0
-0.346117 -0.086364 0.219745 0 255 0
-0.099790 0.113334 -0.271115 255 0 0
-0.033754 0.530708 -0.232098 255 0 0
0.413725 -0.003176 -0.160002 0 255 0
-0.055715 -0.569731 0.116001 127 127 0
-0.315880 0.011486 -0.293020 255 0 0
0.236258 -0.115631 0.245195 255 0 0
-0.180334 -0.143019 0.426960 255 0 0
0.466835 -0.730524 0.258227 153 0 76
0.293524 -0.117826 -0.041172 255 0 0
-0.274320 -0.788703 -0.289949 76 153 0
0.362048 0.003482 0.524877 0 255 0
-0.025610 0.008818 0.125742 0 255 0
0.043361 -0.070430 -0.277375 255 0 0
-0.180397 -0.090133 0.166369 0 255 0
0.153433 0.010277 0.214684 0 255 0
0.259946 0.736790 -0.342657 255 0 0
0.214110 -0.089411 0.004290 0 255 0
0.087390 0.175349 -0.247301 255 0 0
0.160658 -0.008059 0.589803 0 255 0
0.439445 -0.059137 0.345232 0 255 0
0.021359 0.497486 -0.223620 255 0 0
0.501995 0.238844 0.035662 204 51 127
0.235829 -0.076448 -0.228548 0 255 0
0.026683 -0.144012 0.461511 255 0 0
0.493982 -0.777925 0.234492 0 0 255
-0.289294 -0.197290 -0.285728 255 0 0
-0.064372 0.028637 -0.293740 255 0 0
-0.154531 -0.122270 0.519808 255 0 0
-0.374849 0.428387 -0.254907 255 0 0
0.363452 0.299168 -0.234835 255 0 0
0.318761 -0.089862 -0.078413 0 255 0
-0.309813 0.014278 0.196307 0 255 0
0.110106 -0.247593 0.364635 0 0 255
-0.203357 -0.089429 0.124285 0 255 0
-0.007331 -0.092853 0.224404 0 255 0
0.393179 0.013059 0.389136 0 255 0
-0.273712 0.073348 -0.240552 255 0 0
0.221195 -0.121593 -0.274253 255 0 0
0.143482 0.010957 -0.003337 0 255 0
-0.137422 -0.145678 0.454388 255 0 0
-0.019398 0.060606 -0.245556 255 0 0
0.443120 -0.022831 0.238618 0 255 0
-0.075107 -0.172448 -0.065125 0 0 255
-0.013834 -0.566768 0.249382 127 0 127
-0.427420 -0.010328 0.041247 0 255 0
0.214960 -0.022325 -0.231272 0 255 0
0.311243 -0.112379 0.087000 255 0 0
0.225587 -0.089094 0.055614 0 255 0
0.066974 0.247702 -0.237254 255 0 0
-0.008225 -0.132795 0.159380 0 0 255
0.038131 -0.538022 0.063954 153 0 76
-0.121133 -0.219020 0.373090 0 0 255
-0.174676 0.011060 0.317502 0 255 0
0.179953 -0.002047 -0.266584 255 0 0
-0.124410 0.291242 -0.193162 255 0 0
-0.007699 -0.132795 0.046612 0 0 255
-0.063574 -0.091184 0.019877 0 255 0
-0.302105 0.632073 -0.310695 255 0 0
-0.101887 -0.000401 0.543868 0 255 0
0.007078 -0.538856 0.181009 153 0 76
0.304069 -0.688878 -0.316092 255 0 0
-0.316163 -0.785245 -0.260681 0 127 127
0.169044 -0.094075 -0.163079 0 255 0
-0.110950 -0.257300 0.213385 0 0 255
-0.355901 0.441776 -0.210190 255 0 0
0.395305 0.776312 -0.325164 255 0 0
0.364905 0.015068 0.149415 0 255 0
-0.317584 -0.113593 -0.111368 0 127 127
-0.178271 -0.124788 -0.273346 255 0 0
-0.152747 -0.110541 -0.123121 0 127 127
0.478917 -0.063039 -0.125910 153 76 0
0.123655 -0.132795 0.045702 0 0 255
0.295087 0.013621 0.175359 0 255 0
-0.200781 -0.119410 0.476614 255 0 0
0.131726 0.090326 -0.278542 255 0 0
0.083033 -0.091845 0.278797 0 255 0
0.153043 0.459848 -0.214547 255 0 0
-0.156661 -0.155869 -0.089669 0 127 127
-0.248860 -0.096963 0.512197 255 0 0
0.151459 -0.228115 0.091556 0 0 255
0.086122 0.739888 -0.303592 255 0 0
-0.511008 -0.767135 0.275452 153 76 0
-0.237527 0.714341 -0.334796 255 0 0
0.355668 0.067408 -0.239049 255 0 0
-0.333911 0.284159 -0.233316 255 0 0
0.166972 -0.114874 0.395047 255 0 0
-0.091936 0.520358 -0.233262 255 0 0
0.431260 -0.047582 0.465602 0 255 0
0.288350 0.341509 -0.197930 255 0 0
-0.152694 0.525778 -0.278787 255 0 0
-0.091209 -0.097075 -0.208849 0 255 0
-0.509020 0.322034 0.014344 127 127 0
-0.060292 -0.132795 0.327975 0 0 255
0.042784 -0.092126 -0.101272 0 255 0
0.283708 -0.111312 0.291484 255 0 0
0.049118 0.009122 0.283955 0 255 0
-0.019910 -0.429558 0.129464 76 0 153
-0.217605 -0.091179 -0.104216 0 255 0
-0.296367 -0.087248 0.082580 0 255 0
0.054518 -0.105948 0.574361 0 255 0
0.397867 0.605587 -0.283670 255 0 0
0.085786 -0.021238 -0.291644 255 0 0
-0.220074 0.009055 -0.128003 0 255 0
-0.269688 -0.713265 -0.297177 0 255 0
0.077025 0.297643 -0.193393 255 0 0
-0.122350 0.655396 -0.314154 255 0 0
-0.507278 0.281908 0.130409 127 127 0
0.397867 0.176384 -0.221896 255 0 0
0.047206 -0.204283 -0.175411 0 0 255
0.018317 -0.549432 0.282344 127 0 127
-0.344965 -0.049496 -0.311083 255 0 0
0.362103 -0.197328 -0.285711 255 0 0
-0.078073 0.325182 -0.240338 255 0 0
-0.061376 -0.132795 0.291932 0 0 255
0.375975 -0.088380 -0.048164 0 255 0
-0.242410 0.012696 -0.007240 0 255 0
-0.122507 0.259806 -0.235573 255 0 0
0.112756 -0.156068 -0.088736 76 0 153
-0.176645 0.728463 -0.339741 255 0 0
0.256663 -0.613921 0.221733 0 127 127
0.088547 -0.132795 0.170232 0 0 255
0.387151 0.442871 -0.210454 255 0 0
0.015285 0.745561 -0.349754 255 0 0
0.167584 0.693324 -0.327436 255 0 0
0.171346 -0.149270 0.342635 255 0 0
-0.411551 0.298604 0.156251 127 127 0
-0.081936 -0.098851 0.517283 0 255 0
-0.360311 0.014769 0.310932 0 255 0
0.028202 0.005211 -0.199385 0 255 0
0.258274 -0.645938 0.173646 0 127 127
-0.286554 0.013853 0.126153 0 255 0
-0.035458 -0.161536 -0.053041 0 0 255
-0.180606 -0.149270 0.083456 255 0 0
-0.172763 -0.044953 -0.234516 0 255 0
-0.237148 -0.088526 0.075021 0 255 0
0.158528 0.385082 -0.204473 255 0 0
0.357972 -0.091584 0.446180 0 255 0
-0.201308 0.726259 -0.298790 255 0 0
0.072419 -0.175751 -0.068782 0 0 255
0.429095 0.000176 0.432246 0 255 0
0.398020 -0.153980 -0.091426 76 0 153
-0.148196 -0.039339 0.601291 0 255 0
-0.219366 0.201313 -0.243695 255 0 0
-0.277726 -0.690814 -0.237471 0 255 0
0.344146 -0.110181 -0.136975 76 0 153
-0.109641 -0.636284 -0.080964 0 255 0
-0.271087 -0.748834 -0.269100 127 0 127
-0.260572 -0.115418 0.418963 255 0 0
-0.147798 -0.587385 -0.093231 0 255 0
0.231809 -0.089135 0.293109 0 255 0
-0.326496 -0.147040 -0.069179 0 127 127
-0.275843 -0.112564 0.342799 255 0 0
0.317664 -0.204544 -0.280206 255 0 0
-0.271227 0.623252 -0.261368 255 0 0
0.034231 0.560659 -0.241827 255 0 0
-0.434427 0.089029 -0.069681 127 0 127
0.037688 0.207589 -0.242824 255 0 0
-0.087703 0.665377 -0.275840 255 0 0
-0.080626 0.763004 -0.350889 255 0 0
0.289267 -0.097480 0.513882 0 255 0
0.427067 -0.063593 -0.138847 0 255 0
-0.291812 -0.035290 -0.218919 0 255 0
-0.081289 -0.247593 0.272550 0 0 255
0.249431 0.474413 -0.262699 255 0 0
-0.084412 0.428619 -0.211011 255 0 0
-0.141942 0.551910 -0.243139 255 0 0
-0.106536 -0.274416 0.065614 0 0 255
0.146828 -0.093383 0.520340 0 255 0
0.422785 -0.086244 0.319337 0 255 0
-0.133924 0.009965 0.190384 0 255 0
-0.101882 -0.090703 -0.021274 0 255 0
-0.165198 -0.582526 0.151523 127 127 0
0.108015 -0.132795 0.079331 0 0 255
-0.106483 -0.259366 -0.118709 0 0 255
-0.285260 0.707964 -0.336493 255 0 0
0.199733 -0.095287 -0.180961 0 255 0
-0.352547 0.594608 -0.295210 255 0 0
0.002915 -0.063344 0.607406 0 255 0
-0.005311 -0.132795 0.106645 0 0 255
-0.427413 0.307476 -0.140490 127 127 0
0.148933 -0.273776 0.120484 0 0 255
0.201507 0.054874 -0.288199 255 0 0
-0.206127 -0.091871 0.423447 0 255 0
0.320170 -0.729553 -0.274114 255 0 0
-0.059450 0.276936 -0.192955 255 0 0
-0.078968 0.136925 -0.263100 255 0 0
-0.432421 -0.042916 -0.066810 127 0 127
0.038282 -0.164906 -0.257905 255 0 0
0.394157 0.055876 -0.283534 255 0 0
0.354902 0.153510 -0.251253 255 0 0
0.076119 0.342312 -0.239201 255 0 0
-0.279312 -0.018619 0.584290 0 255 0
-0.269527 -0.098123 -0.211142 0 255 0
-0.327075 -0.091266 0.444796 0 255 0
0.020938 -0.769833 0.666550 153 0 76
-0.307538 -0.729116 -0.279194 0 255 0
-0.137592 -0.165487 0.149055 0 0 255
-0.430533 -0.032058 0.218115 0 255 0
-0.201197 -0.128922 0.384928 255 0 0
0.032613 -0.127823 -0.287166 255 0 0
-0.286258 0.013878 0.093172 0 255 0
-0.405931 0.013634 0.011031 0 255 0
-0.230561 0.003925 0.513236 0 255 0
-0.009638 0.111941 -0.226076 255 0 0
-0.061687 -0.132795 0.168129 0 0 255
-0.318723 -0.108974 0.254888 255 0 0
-0.096684 -0.087707 -0.288851 255 0 0
0.070317 -0.247593 0.303511 0 0 255
0.111656 0.198277 -0.198176 255 0 0
0.421745 0.301238 0.149716 76 0 153
-0.063248 -0.566549 -0.017612 0 255 0
0.178784 0.593405 -0.294852 255 0 0
0.439125 -0.049209 0.015314 0 255 0
-0.021252 -0.153756 -0.286076 255 0 0
-0.010322 0.045642 -0.291657 255 0 0
0.079977 -0.091061 -0.011006 0 255 0
-0.202597 0.063328 -0.285033 255 0 0
0.042401 0.120378 -0.268722 255 0 0
0.370168 0.016129 -0.261033 255 0 0
-0.123712 0.224823 -0.242642 255 0 0
0.017925 0.009548 -0.081339 0 255 0
-0.017265 0.006125 0.465653 0 255 0
0.214960 0.691943 -0.283098 255 0 0
-0.032748 0.009864 0.024419 0 255 0
0.290301 -0.082446 0.585402 0 255 0
0.300839 0.326846 -0.237636 255 0 0
0.196727 0.010909 0.375013 0 255 0
0.141871 -0.090924 0.089360 0 255 0
0.130366 -0.574193 -0.074980 255 0 0
-0.309441 -0.114015 0.395640 255 0 0
-0.397766 -0.090242 -0.082067 0 255 0
0.020955 -0.811828 0.673217 153 0 76
-0.275847 0.548002 -0.281347 255 0 0
-0.205207 -0.113004 0.078848 255 0 0
0.097193 -0.132795 0.015949 0 0 255
0.036847 -0.405211 0.120193 76 0 153
0.224540 -0.152496 -0.104336 76 0 153
0.287496 -0.090400 0.408025 0 255 0
-0.070646 0.006607 0.458148 0 255 0
0.394157 0.743113 -0.333417 255 0 0
0.442299 -0.085186 0.161214 0 255 0
-0.319395 -0.087287 -0.312091 255 0 0
-0.276387 -0.087678 0.106512 0 255 0
-0.258190 0.478700 -0.263700 255 0 0
-0.005252 0.007811 -0.145154 0 255 0
0.179560 0.254333 -0.194884 255 0 0
-0.045193 0.569980 -0.291840 255 0 0
-0.335110 -0.809304 -0.286621 0 127 127
0.180010 -0.089992 -0.003357 0 255 0
-0.228386 -0.115747 -0.303953 255 0 0
0.230708 -0.118905 0.084124 255 0 0
-0.464663 0.246925 -0.070694 127 0 127
0.443515 0.207225 0.016153 204 51 127
0.064339 -0.539770 0.092790 153 0 76
-0.097603 0.009965 -0.076535 0 255 0
0.213401 0.598463 -0.258260 255 0 0
0.339068 -0.023494 0.577032 0 255 0
0.009047 -0.093025 0.152281 0 255 0
-0.291190 0.012330 -0.046987 0 255 0
0.039164 -0.087886 0.606937 0 255 0
0.034170 -0.697451 0.129219 76 0 153
-0.109803 -0.556192 -0.001894 0 255 0
-0.250583 -0.092952 0.456996 0 255 0
-0.411791 0.007332 -0.050998 0 255 0
0.294018 -0.132288 -0.270459 255 0 0
0.007662 -0.571649 0.339764 127 0 127
-0.201357 0.128047 -0.260791 255 0 0
-0.063065 -0.530325 0.027905 0 255 0
0.180821 0.549750 -0.281867 255 0 0
-0.152558 -0.090429 0.109595 0 255 0
-0.414992 0.322923 0.052771 127 127 0
0.429864 -0.111845 -0.063319 76 0 153
-0.104119 -0.103430 0.556628 0 255 0
-0.053942 -0.541434 0.103329 153 0 76
0.053010 -0.091664 -0.071962 0 255 0
0.303479 -0.095684 -0.179131 0 255 0
-0.483062 -0.758270 0.237547 153 76 0
0.445794 -0.040935 -0.084674 153 76 0
0.242729 -0.089285 0.330263 0 255 0
0.058729 0.169563 -0.202630 255 0 0
0.101815 -0.248432 -0.175254 0 0 255
0.435922 0.008414 0.182146 0 255 0
0.197637 -0.032127 0.597652 0 255 0
-0.307419 -0.062972 -0.216523 0 255 0
0.183054 0.471718 -0.217408 255 0 0
0.360405 0.092169 -0.277864 255 0 0
-0.004934 -0.092440 0.310302 0 255 0
0.390629 0.015430 0.256981 0 255 0
0.417664 -0.091813 0.459231 0 255 0
0.258894 0.115557 -0.221120 255 0 0
0.176711 0.516854 -0.228289 255 0 0
-0.182120 -0.079070 -0.278375 255 0 0
0.031431 -0.662683 0.498433 127 0 127
-0.304510 -0.757546 -0.291040 0 127 127
-0.181448 0.426959 -0.251618 255 0 0
-0.280461 0.369586 -0.198276 255 0 0
-0.137592 -0.247618 -0.169535 0 0 255
-0.001960 0.162123 -0.208582 255 0 0
0.436720 -0.085660 0.286980 0 255 0
-0.232748 -0.111435 0.133435 255 0 0
0.381299 -0.094278 -0.152193 0 255 0
0.151459 -0.171337 -0.010652 0 0 255
0.165710 -0.118470 -0.030658 255 0 0
-0.092399 0.256023 -0.194740 255 0 0
0.441784 0.261151 0.058158 204 51 127
-0.012577 -0.720350 0.138660 76 0 153
0.107402 -0.148359 -0.122625 76 0 153
-0.254681 -0.176639 -0.253388 255 0 0
0.102444 -0.121009 0.491229 255 0 0
-0.017134 0.311106 -0.238361 255 0 0
0.036304 -0.612860 0.122857 76 0 153
-0.447905 0.219359 0.035399 153 0 76
0.155262 -0.101160 0.601843 0 255 0
0.151459 -0.201656 0.167821 0 0 255
0.077333 -0.109325 -0.128660 76 0 153
-0.031005 -0.149270 0.434205 255 0 0
0.020237 -0.693258 0.649524 127 0 127
-0.355563 0.480766 -0.223493 255 0 0
-0.411934 0.002925 -0.096256 0 255 0
0.301991 0.679824 -0.278276 255 0 0
0.033047 -0.594711 0.317144 127 0 127
0.219049 0.276817 -0.233211 255 0 0
-0.361035 -0.031173 -0.203717 0 255 0
0.486029 0.325482 0.134950 76 0 153
-0.060084 0.073421 -0.281252 255 0 0
0.412171 -0.085612 0.116343 0 255 0
-0.067069 -0.092085 0.368242 0 255 0
-0.368294 0.008738 0.479433 0 255 0
0.396500 0.278745 0.094112 76 0 153
-0.342017 0.774058 -0.329544 255 0 0
-0.434458 0.161585 -0.032210 127 0 127
-0.466246 0.294890 -0.144294 127 127 0
0.089514 -0.273998 0.010438 0 0 255
0.030525 -0.247593 0.278486 0 0 255
0.045492 -0.536271 0.167480 153 0 76
-0.115222 -0.608643 0.184996 127 127 0
-0.029647 -0.001324 -0.233748 0 255 0
0.421317 -0.056557 0.518388 0 255 0
-0.379945 0.358685 -0.208472 255 0 0
-0.030828 -0.250130 0.227875 0 0 255
0.495586 0.251546 0.108290 204 51 127
0.369232 -0.650140 0.257558 0 127 127
-0.187795 0.378535 -0.242867 255 0 0
-0.009450 -0.247593 0.255847 0 0 255
0.017030 0.005858 -0.264170 255 0 0
-0.181660 0.026854 -0.257757 255 0 0
-0.378856 0.136413 -0.213353 255 0 0
-0.146592 0.622817 -0.307884 255 0 0
-0.017816 0.498390 -0.272057 255 0 0
-0.241291 -0.088992 0.317705 0 255 0
0.035026 -0.589340 0.037065 255 0 0
0.037193 -0.273830 -0.011621 0 0 255
-0.233507 -0.150566 -0.109894 0 127 127
-0.088124 0.004037 -0.217489 0 255 0
0.011751 -0.091489 -0.008213 0 255 0
-0.401338 0.015739 0.223808 0 255 0
0.243844 0.002429 0.525804 0 255 0
-0.185548 0.122366 -0.219484 255 0 0
-0.157545 -0.091083 -0.091248 0 255 0
-0.342856 0.014493 0.039776 0 255 0
0.268310 -0.150350 -0.113765 76 0 153
0.344857 0.014280 0.027040 0 255 0
0.247288 -0.636210 -0.188182 255 0 0
0.064404 0.009300 0.352142 0 255 0
-0.268145 -0.101719 0.556069 0 255 0
-0.279441 0.505396 -0.273774 255 0 0
0.298899 0.013729 0.062935 0 255 0
0.119887 -0.092242 0.402044 0 255 0
0.248970 -0.609107 0.170640 0 127 127
-0.196902 -0.089645 0.261129 0 255 0
-0.132773 -0.270267 0.187182 0 0 255
0.220723 -0.118772 0.470283 255 0 0
0.099911 0.009550 0.334944 0 255 0
0.259990 -0.113266 0.365340 255 0 0
-0.383510 0.320196 0.033146 127 127 0
-0.153123 -0.145141 -0.265512 255 0 0
0.009642 -0.205712 -0.278901 255 0 0
0.144523 0.301095 -0.189690 255 0 0
-0.052074 -0.273891 -0.003650 0 0 255
-0.255668 -0.019087 -0.291735 255 0 0
0.138137 -0.109749 -0.287925 255 0 0
-0.115834 0.007599 0.441058 0 255 0
0.033683 -0.590993 0.206842 127 0 127
0.340194 -0.149338 -0.117958 76 0 153
-0.403619 0.015331 0.254399 0 255 0
-0.013586 -0.630026 0.329046 127 0 127
-0.015793 0.613426 -0.263120 255 0 0
-0.247939 -0.112457 0.094981 255 0 0
-0.399435 -0.064685 -0.179336 0 255 0
0.151459 -0.241737 -0.009409 0 0 255
0.160026 0.010100 -0.092627 0 255 0
-0.528820 0.302566 -0.059066 127 127 0
-0.239860 0.007797 0.473649 0 255 0
-0.288702 -0.091786 0.444075 0 255 0
0.321287 0.117778 -0.223972 255 0 0
0.298850 0.146341 -0.253939 255 0 0
-0.104874 0.009517 0.145830 0 255 0
-0.096485 -0.058954 -0.276046 255 0 0
0.048210 -0.780386 0.649119 153 0 76
-0.276525 0.613177 -0.300733 255 0 0
-0.386487 -0.146384 -0.123519 0 127 127
-0.152948 0.091150 -0.230208 255 0 0
-0.304154 -0.111193 0.285544 255 0 0
0.124332 0.009553 0.152982 0 255 0
-0.321315 -0.086731 0.190834 0 255 0
0.151459 -0.207121 0.042549 0 0 255
-0.300843 -0.105674 -0.051163 0 255 0
-0.184635 0.289622 -0.188736 255 0 0
-0.288102 -0.088018 -0.003790 0 255 0
0.442905 -0.030385 0.129017 0 255 0
-0.063763 -0.132795 -0.008405 0 0 255
-0.479738 0.256638 0.083890 153 0 76
0.044930 -0.132795 0.126438 0 0 255
0.155635 0.743494 -0.345005 255 0 0
0.547466 -0.809429 0.254123 0 0 255
-0.154163 -0.089988 -0.031652 0 255 0
-0.126589 0.774606 -0.335960 255 0 0
0.266704 -0.088340 0.114888 0 255 0
-0.137592 -0.185919 0.088525 0 0 255
-0.219590 0.012307 0.114613 0 255 0
-0.027684 -0.092866 0.191738 0 255 0
-0.185211 -0.089652 -0.033965 0 255 0
0.256042 0.369561 -0.241959 255 0 0
0.266311 -0.110829 0.240578 255 0 0
-0.417158 0.011459 0.117869 0 255 0
-0.459113 0.274319 -0.027022 127 127 0
0.056242 -0.009824 0.596835 0 255 0
-0.038787 0.006946 -0.164026 0 255 0
0.123614 -0.105435 0.573320 0 255 0
-0.377330 0.014018 0.370449 0 255 0
0.394157 0.107542 -0.239753 255 0 0
0.448600 0.024743 -0.047489 153 76 0
0.500957 -0.807813 0.265438 0 0 255
-0.303190 0.560685 -0.245989 255 0 0
0.419452 -0.089777 0.423357 0 255 0
0.355597 -0.140786 -0.307863 255 0 0
0.253269 0.213284 -0.242033 255 0 0
0.402551 -0.145371 -0.128546 76 0 153
0.014623 -0.378201 0.096789 153 76 0
0.112471 0.292359 -0.234146 255 0 0
-0.200462 -0.030190 -0.272714 255 0 0
0.274794 -0.114243 0.035665 255 0 0
0.038676 -0.129821 -0.067537 76 0 153
-0.105968 0.486097 -0.269045 255 0 0
0.332110 0.564141 -0.247062 255 0 0
0.443852 -0.134270 -0.085972 76 0 153
-0.086923 -0.138372 -0.027390 0 0 255
-0.290880 -0.094795 -0.165035 0 255 0
-0.253663 -0.137072 -0.268618 255 0 0
-0.194696 0.642156 -0.309518 255 0 0
-0.137757 0.010331 0.251257 0 255 0
0.141646 0.311048 -0.236037 255 0 0
-0.378345 0.032703 -0.264701 255 0 0
-0.274301 -0.058268 -0.301272 255 0 0
-0.103754 0.009822 0.100777 0 255 0
0.185878 -0.110941 0.263680 255 0 0
0.043588 0.592080 -0.298550 255 0 0
0.063225 -0.259886 -0.116018 0 0 255
0.218285 0.362497 -0.201082 255 0 0
0.073935 0.441353 -0.258083 255 0 0
0.454767 0.078294 -0.108212 153 76 0
-0.137592 -0.202458 0.206179 0 0 255
0.023397 0.008716 0.115519 0 255 0
0.048705 -0.094615 -0.169633 0 255 0
-0.000706 0.535443 -0.277611 255 0 0
0.153625 0.602651 -0.255466 255 0 0
0.235942 -0.091346 0.507230 0 255 0
-0.345056 -0.009800 0.568787 0 255 0
-0.086115 -0.148367 -0.264270 255 0 0
0.134906 0.588561 -0.293411 255 0 0
0.036808 -0.536135 0.120386 76 0 153
0.033700 -0.093007 0.180324 0 255 0
0.081620 -0.192843 0.373090 0 0 255
-0.100925 -0.090905 0.010527 0 255 0
0.392675 0.014503 -0.000717 0 255 0
0.481803 -0.000459 -0.117685 153 76 0
-0.130270 -0.595171 -0.030180 0 255 0
-0.059243 0.009394 -0.114977 0 255 0
-0.290665 -0.806694 -0.312327 76 153 0
-0.245753 0.174454 -0.247425 255 0 0
0.554995 0.284427 -0.011729 76 0 153
0.037689 -0.227282 -0.238785 0 0 255
-0.469593 -0.001564 -0.071484 127 0 127
0.145213 0.520761 -0.233361 255 0 0
-0.211854 -0.116319 -0.001841 255 0 0
0.173927 0.431819 -0.255748 255 0 0
0.070559 -0.100687 0.531399 0 255 0
-0.206791 0.011356 0.370519 0 255 0
-0.362327 0.015226 0.213883 0 255 0
0.237336 -0.110926 -0.302569 255 0 0
0.248204 -0.088820 0.026951 0 255 0
-0.348609 0.357800 -0.196799 255 0 0
-0.011000 -0.049742 -0.274979 255 0 0
0.102789 -0.091620 0.095187 0 255 0
0.367161 -0.149288 -0.263916 255 0 0
0.153053 0.695654 -0.285143 255 0 0
0.184735 -0.113265 0.358748 255 0 0
-0.469809 0.147748 -0.023791 127 0 127
-0.015973 -0.662241 0.135457 76 0 153
0.019608 -0.092452 0.277642 0 255 0
0.056747 -0.119849 -0.149047 76 0 153
-0.052041 -0.535027 0.139100 153 0 76
0.322943 0.013814 0.005768 0 255 0
-0.254379 -0.618297 0.180846 127 127 0
0.209731 0.428050 -0.210925 255 0 0
0.443218 0.323820 -0.083794 76 0 153
0.363068 0.199187 -0.199875 255 0 0
-0.239552 -0.095543 -0.277140 255 0 0
-0.137592 -0.248685 0.050853 0 0 255
0.035020 -0.642208 0.103008 76 0 153
-0.081686 -0.132795 0.229813 0 0 255
-0.098863 -0.196578 -0.272474 0 0 255
-0.321950 0.109090 -0.223528 255 0 0
0.511591 0.276168 -0.066196 76 0 153
-0.019160 0.009246 0.068491 0 255 0
-0.017832 -0.027117 -0.243377 0 255 0
0.453553 -0.048538 -0.132523 153 76 0
-0.137592 -0.179432 -0.035513 0 0 255
0.311370 0.058461 -0.286856 255 0 0
-0.070235 -0.128839 0.482401 255 0 0
0.549073 0.307643 0.069461 76 0 153
-0.087499 -0.019944 0.602864 0 255 0
0.448366 0.049022 -0.101161 153 76 0
-0.369826 -0.071625 0.563254 0 255 0
-0.341402 -0.213067 -0.270678 255 0 0
-0.334807 0.349259 -0.243720 255 0 0
-0.004293 0.009973 -0.028488 0 255 0
0.469628 0.160935 0.014526 204 51 127
-0.263143 -0.116468 -0.014651 255 0 0
-0.028469 -0.534288 0.066342 153 0 76
0.134237 -0.274434 0.067937 0 0 255
0.013313 -0.266954 -0.079462 0 0 255
-0.415118 -0.077161 0.491450 0 255 0
0.195699 -0.115643 0.411767 255 0 0
-0.297015 0.312944 -0.238619 255 0 0
-0.235739 -0.088894 0.206154 0 255 0
-0.082388 -0.545799 -0.007530 0 255 0
0.175091 0.631658 -0.306230 255 0 0
0.176826 0.148015 -0.213075 255 0 0
-0.251552 0.135323 -0.262501 255 0 0
0.116742 -0.266903 -0.079727 0 0 255
0.180797 -0.201131 -0.244103 255 0 0
0.045998 -0.580026 0.167065 153 0 76
0.164725 0.115394 -0.224831 255 0 0
-0.002859 -0.765524 0.642731 204 51 127
-0.501258 0.274114 0.041969 127 127 0
0.038215 -0.097864 0.507352 0 255 0
0.066037 -0.091956 0.303273 0 255 0
0.336922 -0.093090 -0.277412 255 0 0
0.110071 -0.091695 -0.092001 0 255 0
0.082646 -0.267018 0.193747 0 0 255
-0.078147 -0.091897 0.123432 0 255 0
0.235258 0.557889 -0.284288 255 0 0
0.257894 -0.684040 -0.191060 255 0 0
-0.218364 0.096139 -0.228351 255 0 0
0.524994 0.323171 -0.023069 76 0 153
0.021511 -0.585262 0.375221 127 0 127
0.514593 0.287260 0.146884 76 0 153
-0.454392 0.246099 0.046699 153 0 76
0.397615 0.014971 0.317257 0 255 0
-0.481426 0.275548 0.117180 127 127 0
0.259404 -0.116553 -0.015278 255 0 0
0.335449 -0.087608 -0.011908 0 255 0
-0.179713 -0.116399 -0.000543 255 0 0
0.459157 -0.697614 0.241290 0 127 127
-0.354728 -0.016885 -0.271116 255 0 0
0.494246 0.324003 -0.084097 76 0 153
-0.408535 0.273770 0.027741 127 127 0
-0.030723 -0.088213 -0.243024 0 255 0
0.264995 -0.111064 0.160522 255 0 0
0.260091 -0.092600 -0.140861 0 255 0
0.273996 0.240595 -0.193177 255 0 0
-0.029759 -0.800945 0.673474 204 51 127
-0.256386 0.221196 -0.197712 255 0 0
-0.434435 0.122529 -0.082249 127 0 127
0.185455 -0.090248 -0.277727 255 0 0
-0.487184 0.234125 -0.001028 153 0 76
-0.039948 0.045856 -0.291577 255 0 0
0.207936 0.006105 -0.182546 0 255 0
0.003081 -0.132795 0.005576 0 0 255
0.124472 -0.195863 -0.245989 0 0 255
-0.278981 -0.156842 -0.081441 0 127 127
0.143155 -0.566835 -0.041626 255 0 0
0.032955 0.667100 -0.318253 255 0 0
0.161797 0.006159 0.480628 0 255 0
-0.158229 -0.149270 0.362884 255 0 0
-0.059137 -0.202272 -0.189770 0 0 255
-0.429269 -0.072184 0.283399 0 255 0
0.105813 -0.232912 -0.223496 0 0 255
0.435215 -0.043888 -0.044763 0 255 0
0.281656 -0.773476 -0.325278 0 255 0
-0.346220 0.544909 -0.236711 255 0 0
0.361077 0.693932 -0.327649 255 0 0
-0.256081 -0.682050 -0.280488 0 255 0
0.109576 0.356165 -0.244690 255 0 0
-0.192488 -0.121516 0.446256 255 0 0
0.258907 -0.070110 -0.277338 255 0 0
0.057877 0.762694 -0.351039 255 0 0
